# .PCD v0.7 - Point Cloud Data file format
VERSION 0.7
FIELDS x y z intensity laser_id timestamp distance_m
SIZE 4 4 4 1 1 8 8
TYPE F F F U U I F
COUNT 1 1 1 1 1 1 1
WIDTH 722
HEIGHT 1
VIEWPOINT 0 0 0 1 0 0 0
POINTS 722
DATA ascii
-0.09429952 0.82470024 -0.15441650 63 2 1737281145494 0.84431471
-0.12846816 1.13862145 -0.29725415 61 0 1737281145494 1.18377485
-0.36854336 1.20998979 -0.28378600 90 1 1737281145494 1.29631554
-1.11580276 10.07306767 2.32985497 35 14 1737281145494 10.39903515
-5.17995358 16.82221603 4.70049238 50 15 1737281145494 18.21849335
-1.14930630 10.35966873 1.64348650 84 12 1737281145494 10.55199929
-1.96075177 6.41709518 1.29633605 15 13 1737281145494 6.83404311
-1.15729368 10.44850922 0.91666055 70 10 1737281145494 10.55229549
-1.96508527 6.46737242 0.82449108 35 11 1737281145494 6.80942374
-0.36995342 3.33898950 0.05802925 78 8 1737281145494 3.35992318
-1.95470834 6.45343685 0.35156676 32 9 1737281145494 6.75213530
-0.21347438 1.92552090 -0.09970000 31 6 1737281145494 1.93988199
-0.18555102 0.62799895 -0.05414622 37 5 1737281145494 0.65707204
-0.09300792 0.83966345 -0.15727606 80 2 1737281145494 0.85931422
-0.12526779 1.14626670 -0.29919276 72 0 1737281145494 1.19127481
-0.36481580 1.21366274 -0.28434795 90 1 1737281145494 1.29881545
-1.07985663 10.06963539 2.32816911 36 14 1737281145494 10.39153591
-5.11627817 16.82402039 4.69596910 53 15 1737281145494 18.20099146
-1.11524332 10.38325882 1.64661157 75 12 1737281145494 10.57199891
-1.93549776 6.41450453 1.29442978 15 13 1737281145494 6.82404340
-1.12348914 10.49477863 0.92036462 54 10 1737281145494 10.59479483
-1.93963921 6.46468782 0.82327414 35 11 1737281145494 6.79942418
-0.35744822 3.33783770 0.05798562 78 8 1737281145494 3.35742342
-1.93175900 6.46294975 0.35169759 32 9 1737281145494 6.75463571
-0.20641556 1.92629039 -0.09970000 31 6 1737281145494 1.93988199
-0.66525578 2.23753405 -0.04014053 4 7 1737281145494 2.33468095
-0.33062524 3.11174202 -0.37938759 9 4 1737281145494 3.15217169
-0.18264374 0.62625688 -0.05392876 36 5 1737281145494 0.65457217
-0.09084469 0.84730518 -0.15870585 67 2 1737281145494 0.86681392
-0.12126580 1.14669693 -0.29919276 67 0 1737281145494 1.19127475
-0.36127874 1.21726143 -0.28490990 90 1 1737281145494 1.30131525
-1.03993726 10.04444790 2.32142544 35 14 1737281145494 10.36153556
-5.04693794 16.81721687 4.68886089 46 15 1737281145494 18.17349120
-1.08073890 10.42166424 1.65208089 58 12 1737281145494 10.60700020
-1.90776253 6.40744495 1.29157007 14 13 1737281145494 6.80904266
-1.91352940 6.45952511 0.82175297 35 11 1737281145494 6.78692399
-0.34502655 3.33160567 0.05785472 70 8 1737281145494 3.34992341
-1.91131210 6.47683525 0.35209015 32 9 1737281145494 6.76213548
-0.19969030 1.92699921 -0.09970000 31 6 1737281145494 1.93988202
-0.66169333 2.25422478 -0.04040232 3 7 1737281145494 2.34968078
-0.32278588 3.14250016 -0.38303849 9 4 1737281145494 3.18217166
-0.18257363 0.63405597 -0.05458112 31 5 1737281145494 0.66207190
-0.08739133 0.84273398 -0.15775266 68 2 1737281145494 0.86181420
-0.11822850 1.15672493 -0.30177757 65 0 1737281145494 1.20127442
-0.35425353 1.20917439 -0.28266209 90 1 1737281145494 1.29131566
-1.00541115 10.03572083 2.31861591 35 14 1737281145494 10.34903492
-4.98564529 16.81534004 4.68369102 44 15 1737281145494 18.15349226
-1.88719833 6.41609001 1.29204667 14 13 1737281145494 6.81154264
-1.88538492 6.44711590 0.81931907 34 11 1737281145494 6.76692422
-0.33422449 3.33521891 0.05789835 66 8 1737281145494 3.35242351
-1.88562167 6.46875906 0.35130507 33 9 1737281145494 6.74713481
-0.19280572 1.92268205 -0.09943832 30 6 1737281145494 1.93488198
-0.65382057 2.25652075 -0.04040232 3 7 1737281145494 2.34968074
-0.31260705 3.14602232 -0.38334271 8 4 1737281145494 3.18467129
-0.17698126 0.62270409 -0.05349385 32 5 1737281145494 0.64957243
-0.08540533 0.85280383 -0.15965904 67 2 1737281145494 0.87181388
-0.11465635 1.16193807 -0.30306998 56 0 1737281145494 1.20627425
-0.35024181 1.21034241 -0.28266209 90 1 1737281145494 1.29131558
-0.96850264 10.01977158 2.31412029 32 14 1737281145494 10.32903541
-4.91673326 16.79787827 4.67399836 51 15 1737281145494 18.11599406
-1.85724556 6.39671946 1.28680420 14 13 1737281145494 6.78404348
-1.12871230 11.68082809 1.02364421 90 10 1737281145494 11.77979558
-1.86148918 6.44889069 0.81871057 34 11 1737281145494 6.76192428
-0.32281950 3.33885312 0.05794198 59 8 1737281145494 3.35492323
-1.86372197 6.47770119 0.35143593 33 9 1737281145494 6.74963551
-0.18656911 1.92831385 -0.09970000 28 6 1737281145494 1.93988207
-0.64732361 2.26359320 -0.04048958 4 7 1737281145494 2.35468075
-0.30444646 3.17673755 -0.38699359 1 4 1737281145494 3.21467154
-0.17331976 0.61856192 -0.05305894 37 5 1737281145494 0.64457260
-0.08358062 0.86531317 -0.16204201 97 2 1737281145494 0.88431342
-0.17012431 0.60637927 -0.09414790 69 3 1737281145494 0.63679033
-0.11082448 1.16473579 -0.30371618 58 0 1737281145494 1.20877420
-0.34377182 1.20459795 -0.28097624 90 1 1737281145494 1.28381577
-0.93104136 9.99641037 2.30793881 32 14 1737281145494 10.30153580
-4.85135746 16.79173660 4.66753578 53 15 1737281145494 18.09099162
-1.08371997 11.61731052 1.84037673 88 12 1737281145494 11.81199980
-1.82812858 6.37957573 1.28203821 13 13 1737281145494 6.75904302
-1.08474207 11.67248726 1.02255476 91 10 1737281145494 11.76729546
-1.83760405 6.45057726 0.81810206 35 11 1737281145494 6.75692434
-0.31080988 3.34250307 0.05798562 56 8 1737281145494 3.35742340
-0.17881359 1.92152643 -0.09930747 26 6 1737281145494 1.93238198
-0.63805127 2.26103020 -0.04040232 4 7 1737281145494 2.34968069
-0.29642016 3.21736956 -0.39186147 5 4 1737281145494 3.25467159
-0.17115952 0.61916310 -0.05305894 42 5 1737281145494 0.64457255
-0.08078161 0.86804378 -0.16251861 97 2 1737281145494 0.88681338
-0.16935875 0.61171931 -0.09492921 58 3 1737281145494 0.64179004
-0.10697448 1.16752088 -0.30436239 61 0 1737281145494 1.21127413
-0.33956489 1.20579064 -0.28097624 90 1 1737281145494 1.28381581
-0.89396334 9.99490261 2.30681491 33 14 1737281145494 10.29653552
-4.78381872 16.78850174 4.66172028 51 15 1737281145494 18.06849048
-1.04091311 11.61874580 1.83998597 85 12 1737281145494 11.80950052
-1.80138874 6.37442732 1.27965522 12 13 1737281145494 6.74654300
-1.04376948 11.67372131 1.02233684 90 10 1737281145494 11.76479480
-0.29891908 3.34107780 0.05794198 53 8 1737281145494 3.35492337
-0.17254552 1.92711258 -0.09956915 24 6 1737281145494 1.93738196
-0.63218027 2.27046394 -0.04053321 4 7 1737281145494 2.35718081
-0.16765267 0.61496055 -0.05262403 45 5 1737281145494 0.63957266
-0.07887777 0.88300329 -0.16537817 101 2 1737281145494 0.90181287
-0.17111972 0.62660038 -0.09727315 36 3 1737281145494 0.65678921
-0.10373028 1.17751133 -0.30694720 56 0 1737281145494 1.22127372
-0.33469301 1.20462394 -0.28041428 90 1 1737281145494 1.28131589
-0.85740447 9.97854519 2.30231905 33 14 1737281145494 10.27653539
-4.71929789 16.78417587 4.65590429 45 15 1737281145494 18.04599061
-0.99950433 11.61246681 1.83842337 79 12 1737281145494 11.79949977
-1.78309178 6.39485788 1.28251493 11 13 1737281145494 6.76154333
-1.00216329 11.66736889 1.02146530 90 10 1737281145494 11.75479559
-0.28810531 3.35206318 0.05811651 51 8 1737281145495 3.36492344
-0.16560608 1.92521560 -0.09943832 20 6 1737281145495 1.93488203
-0.62625128 2.27988410 -0.04066410 4 7 1737281145495 2.36468090
-0.16616890 0.61794245 -0.05284148 44 5 1737281145495 0.64207258
-0.07538602 0.87838203 -0.16442497 99 2 1737281145495 0.89681303
-0.16497707 0.61291552 -0.09492921 26 3 1737281145495 0.64179001
-0.09922024 1.17305279 -0.30565479 46 0 1737281145495 1.21627396
-0.32983339 1.20343792 -0.27985233 90 1 1737281145495 1.27881595
-0.82176924 9.97176647 2.30007148 33 14 1737281145495 10.26653593
-4.65486574 16.77960587 4.65008879 48 15 1737281145495 18.02349228
-0.95896316 11.61588478 1.83842337 90 12 1737281145495 11.79949957
-1.77250433 6.44362831 1.29109359 10 13 1737281145495 6.80654391
-0.96081823 11.66335011 1.02081168 91 10 1737281145495 11.74729602
-0.27885005 3.38294387 0.05864008 83 8 1737281145495 3.39492345
-1.89433897 6.95134830 0.37577215 42 9 1737281145495 7.21463569
-0.15888482 1.92578197 -0.09943832 15 6 1737281145495 1.93488205
-0.61894751 2.28446746 -0.04070774 3 7 1737281145495 2.36718075
-0.16532189 0.62332422 -0.05327640 44 5 1737281145495 0.64707247
-0.07286558 0.88351977 -0.16537817 90 2 1737281145495 0.90181290
-0.09588958 1.18302178 -0.30823961 44 0 1737281145495 1.22627363
-0.32627502 1.20693123 -0.28041428 90 1 1737281145495 1.28131595
-0.78812248 9.96714973 2.29838562 33 14 1737281145495 10.25903442
-4.59217358 16.76933098 4.64298010 51 15 1737281145495 17.99599355
-0.91985440 11.61161613 1.83725142 90 12 1737281145495 11.79199958
-0.91990441 11.66414928 1.02059376 90 10 1737281145495 11.74479520
-0.26939139 3.40627742 0.05903276 97 8 1737281145495 3.41742336
-1.90052474 7.06606340 0.38165995 38 9 1737281145495 7.32713523
-0.15210868 1.92132020 -0.09917664 11 6 1737281145495 1.92988196
-0.61421889 2.29868245 -0.04092589 4 7 1737281145495 2.37968082
-0.16390149 0.62627387 -0.05349385 40 5 1737281145495 0.64957236
-0.06959322 0.88132185 -0.16490158 90 2 1737281145495 0.89931304
-0.09102844 1.17371690 -0.30565479 47 0 1737281145495 1.21627398
-0.32036099 1.20095253 -0.27872843 90 1 1737281145495 1.27381619
-0.75149512 9.94554996 2.29276609 33 14 1737281145495 10.23403564
-4.52856684 16.76660538 4.63781071 55 15 1737281145495 17.97599126
-0.87875879 11.60736942 1.83607948 89 12 1737281145495 11.78449956
-0.88028377 11.65471840 1.01950431 90 10 1737281145495 11.73229515
-0.25899550 3.42713809 0.05938181 97 8 1737281145495 3.43742351
-1.88547087 7.10884571 0.38362256 38 9 1737281145495 7.36463536
-0.14558697 1.92432904 -0.09930747 10 6 1737281145495 1.93238190
-0.60554981 2.29839635 -0.04088226 3 7 1737281145495 2.37718062
-0.06778159 0.88843739 -0.10496289 8 4 1737281145495 0.89718033
-0.16224369 0.62927765 -0.05371131 34 5 1737281145495 0.65207229
-0.06687503 0.88645458 -0.16585477 90 2 1737281145495 0.90431289
-0.08797695 1.18847990 -0.30953202 63 0 1737281145495 1.23127352
-0.31595710 1.20211864 -0.27872843 90 1 1737281145495 1.27381617
-0.71572655 9.93353462 2.28939438 28 14 1737281145495 10.21903622
-4.46441317 16.76131058 4.63199472 53 15 1737281145495 17.95349248
-0.83805871 11.60790253 1.83568871 89 12 1737281145495 11.78199883
-0.83702695 11.65041447 1.01885056 90 10 1737281145495 11.72479543
-1.95528364 7.44994831 0.94010240 37 11 1737281145495 7.75942372
-0.24803329 3.45050383 0.05977449 97 8 1737281145495 3.45992343
-1.86699510 7.14468908 0.38519260 25 9 1737281145495 7.39463496
-0.13888650 1.92983043 -0.09956915 9 6 1737281145495 1.93738199
-0.59942234 2.30775046 -0.04101315 4 7 1737281145495 2.38468057
-0.06504802 0.89610571 -0.10587561 25 4 1737281145495 0.90468024
-0.15815520 0.62261182 -0.05305894 32 5 1737281145495 0.64457257
-0.06326802 0.87933797 -0.16442497 90 2 1737281145495 0.89681306
-0.08316407 1.17914236 -0.30694720 49 0 1737281145495 1.22127374
-0.31051940 1.19850242 -0.27760452 90 1 1737281145495 1.26881623
-0.67865086 9.92636871 2.28714657 30 14 1737281145495 10.20903532
-4.39681387 16.75420570 4.62553310 44 15 1737281145495 17.92849513
-0.79432929 11.59365082 1.83295417 75 12 1737281145495 11.76449826
-1.97350371 7.58385086 1.51509273 21 13 1737281145495 7.98154225
-0.79584616 11.64581108 1.01819694 90 10 1737281145495 11.71729542
-1.92490578 7.43991423 0.93797272 35 11 1737281145495 7.74192345
-0.23767866 3.47628713 0.06021080 97 8 1737281145495 3.48492305
-0.13214928 1.93030345 -0.09956915 8 6 1737281145495 1.93738196
-0.59198767 2.31224895 -0.04105679 3 7 1737281145495 2.38718040
-0.06175389 0.89385134 -0.10557137 39 4 1737281145495 0.90218018
-0.15535901 0.62074840 -0.05284148 34 5 1737281145495 0.64207260
-0.06084704 0.88934863 -0.16633137 90 2 1737281145495 0.90681281
-0.08046536 1.20111454 -0.31276304 32 0 1737281145495 1.24377310
-0.30449921 1.19250500 -0.27591866 42 1 1737281145495 1.26131640
-0.64415371 9.90425587 2.28152704 28 14 1737281145495 10.18403574
-4.33517122 16.74531174 4.61907053 49 15 1737281145495 17.90349092
-0.75619942 11.60115051 1.83373547 86 12 1737281145495 11.76949942
-1.97158337 7.68066883 1.53320336 11 13 1737281145495 8.07654179
-0.75486839 11.64354706 1.01776123 90 10 1737281145495 11.71229492
-1.89769471 7.44178009 0.93736422 36 11 1737281145495 7.73692366
-0.12670627 1.94567955 -0.10035419 7 6 1737281145495 1.95238171
-0.58760959 2.32883644 -0.04131857 3 7 1737281145495 2.40218056
-0.05894697 0.89652771 -0.10587561 42 4 1737281145495 0.90468023
-0.15207189 0.61643285 -0.05240657 37 5 1737281145495 0.63707281
-0.05743493 0.88465691 -0.16537817 89 2 1737281145495 0.90181292
-0.17232582 0.69517481 -0.10782084 43 3 1737281145495 0.72428554
-0.29631677 1.17698812 -0.27198499 54 1 1737281145495 1.24381691
-0.60853356 9.88942242 2.27759337 32 14 1737281145495 10.16653434
-4.27250862 16.74396324 4.61454725 48 15 1737281145495 17.88599120
-0.71509278 11.59386158 1.83217287 90 12 1737281145495 11.75950005
-1.96406543 7.76362801 1.54845428 12 13 1737281145495 8.15654237
-0.71564293 11.63604259 1.01688957 88 10 1737281145495 11.70229450
-1.86867559 7.43632793 0.93584305 36 11 1737281145495 7.72442385
-0.11991380 1.94611013 -0.10035419 5 6 1737281145495 1.95238186
-0.57826155 2.32602406 -0.04123131 4 7 1737281145495 2.39718050
-0.05522157 0.88682014 -0.10465865 44 4 1737281145495 0.89468028
-0.14981154 0.61698610 -0.05240657 39 5 1737281145495 0.63707283
-0.05463679 0.88975173 -0.16633137 84 2 1737281145495 0.90681280
-0.16749361 0.68619215 -0.10625822 40 3 1737281145495 0.71428607
-0.29081070 1.17334175 -0.27086109 90 1 1737281145495 1.23881696
-0.57288414 9.87203217 2.27309775 32 14 1737281145495 10.14653580
-4.20813942 16.73535538 4.60808516 49 15 1737281145495 17.86099118
-0.67376035 11.58149529 1.82982898 77 12 1737281145495 11.74449914
-1.95599198 7.84662676 1.56370533 13 13 1737281145495 8.23654239
-0.67255986 11.63112831 1.01623595 90 10 1737281145495 11.69479449
-1.84151113 7.43798876 0.93523455 36 11 1737281145495 7.71942379
-1.83233798 7.43424082 0.39945418 23 9 1737281145495 7.66713523
-0.11320607 1.95401418 -0.10074671 4 6 1737281145495 1.95988187
-0.57433313 2.34501553 -0.04153672 3 7 1737281145495 2.41468045
-0.05183102 0.88453913 -0.10435440 51 4 1737281145495 0.89218034
-0.14646372 0.61266923 -0.05197166 39 5 1737281145495 0.63207299
-0.05125751 0.88503635 -0.16537817 79 2 1737281145495 0.90181296
-0.16450457 0.68437558 -0.10586756 37 3 1737281145495 0.71178623
-0.16934651 3.05144596 -0.80840194 5 0 1737281145495 3.16125203
-0.28612638 1.17198551 -0.27029914 95 1 1737281145495 1.23631709
-0.53577530 9.85703754 2.26916385 32 14 1737281145495 10.12903494
-4.14154434 16.72957039 4.60226965 47 15 1737281145495 17.83849211
-0.63077164 11.57402515 1.82826638 78 12 1737281145495 11.73449995
-1.94773769 7.93715191 1.58038616 12 13 1737281145495 8.32404247
-0.63141680 11.62345886 1.01536441 90 10 1737281145495 11.68479559
-1.81141067 7.42749882 0.93310493 36 11 1737281145495 7.70192392
-0.27910343 5.15159273 0.08944358 65 8 1737281145495 5.15992311
-1.80814791 7.44786882 0.39984670 24 9 1737281145495 7.67463525
-0.10598478 1.94691837 -0.10035419 4 6 1737281145495 1.95238185
-0.56496257 2.34214854 -0.04144946 3 7 1737281145495 2.40968059
-0.04861192 0.88223672 -0.10405017 57 4 1737281145495 0.88968038
-0.14491239 0.61559677 -0.05218912 37 5 1737281145495 0.63457284
-0.04829586 0.88766062 -0.16585477 83 2 1737281145495 0.90431282
-0.16269904 0.68734473 -0.10625822 25 3 1737281145495 0.71428605
-0.15869395 3.05201864 -0.80840194 4 0 1737281145495 3.16125217
-0.50234324 9.84416294 2.26579237 31 14 1737281145495 10.11403519
-4.08031225 16.71975327 4.59580708 46 15 1737281145495 17.81349320
-0.59150678 11.55878925 1.82553184 80 12 1737281145495 11.71699858
-1.93817794 8.01273346 1.59420753 11 13 1737281145495 8.39654267
-0.59046149 11.61812973 1.01471078 90 10 1737281145495 11.67729511
-1.78431106 7.42895174 0.93249643 36 11 1737281145495 7.69692403
-0.26201859 5.15248966 0.08944358 63 8 1737281145495 5.15992283
-1.78402221 7.45625210 0.39997754 25 9 1737281145495 7.67713570
-0.09965300 1.94975269 -0.10048503 4 6 1737281145495 1.95488197
-0.56027699 2.35869145 -0.04171125 3 7 1737281145495 2.42468050
-0.04556311 0.87991470 -0.10374593 58 4 1737281145495 0.88718042
-0.14229007 0.61365199 -0.05197166 34 5 1737281145495 0.63207301
-0.04507759 0.88537252 -0.16537817 77 2 1737281145495 0.90181286
-0.15857069 0.68070501 -0.10508625 15 3 1737281145495 0.70678646
-0.14827035 3.05737853 -0.80969441 4 0 1737281145495 3.16625214
-0.46728653 9.83125687 2.26242065 33 14 1737281145495 10.09903537
-4.01740456 16.71510887 4.59063768 50 15 1737281145495 17.79349202
-0.55103827 11.55831718 1.82514107 88 12 1737281145495 11.71449868
-1.93242610 8.11254406 1.61279464 10 13 1737281145495 8.49404193
-0.55146009 11.61007404 1.01383913 90 10 1737281145495 11.66729606
-1.75607800 7.42547703 0.93127942 36 11 1737281145495 7.68692399
-0.24356221 5.14338589 0.08926905 65 8 1737281145495 5.14992329
-1.75568843 7.45271492 0.39945418 32 9 1737281145495 7.66713540
-0.55187804 2.35810375 -0.04166762 3 7 1737281145495 2.42218060
-0.04214847 0.87263209 -0.10283320 61 4 1737281145495 0.87968058
-0.14243385 0.62384105 -0.05284148 26 5 1737281145495 0.64207264
-0.04187589 0.88307297 -0.16490158 81 2 1737281145495 0.89931307
-0.15619364 0.68125439 -0.10508625 15 3 1737281145495 0.70678647
-0.13823837 3.06026626 -0.81034064 4 0 1737281145495 3.16875234
-0.43232608 9.81822586 2.25904894 32 14 1737281145495 10.08403525
-3.95457864 16.71022987 4.58546829 45 15 1737281145495 17.77349133
-0.51047182 11.55523682 1.82435989 89 12 1737281145495 11.70949907
-1.92094600 8.19091129 1.62709248 7 13 1737281145495 8.56904261
-0.51071191 11.60695171 1.01340342 90 10 1737281145495 11.66229571
-0.22571558 5.14670181 0.08931268 62 8 1737281145495 5.15242310
-1.77659345 7.66062880 0.41031387 25 9 1737281145495 7.87463493
-0.54534042 2.36732006 -0.04179851 3 7 1737281145495 2.42968055
-0.03920780 0.87525296 -0.10313745 65 4 1737281145495 0.88218044
-0.14138180 0.62918645 -0.05327640 23 5 1737281145495 0.64707247
-0.03879313 0.88321376 -0.16490158 81 2 1737281145495 0.89931306
-0.15269616 0.67698520 -0.10430493 23 3 1737281145495 0.70178672
-0.12775324 3.06555581 -0.81163299 4 0 1737281145495 3.17375195
-0.39716780 9.79776955 2.25399137 33 14 1737281145494 10.06153604
-3.89128757 16.70276451 4.57965183 48 15 1737281145494 17.75099074
-0.46973357 11.54708004 1.82279718 79 12 1737281145494 11.69949985
-0.46989185 11.60119820 1.01274979 90 10 1737281145494 11.65479558
-0.20774885 5.14745855 0.08931268 65 8 1737281145494 5.15242330
-1.76153767 7.71789122 0.41306153 9 9 1737281145494 7.92713565
-0.53818798 2.37408280 -0.04188577 3 7 1737281145494 2.43468065
-0.03615236 0.87538451 -0.10313745 65 4 1737281145494 0.88218046
-0.14251310 0.64424384 -0.05458112 22 5 1737281145494 0.66207190
-0.03570991 0.88334376 -0.16490158 81 2 1737281145494 0.89931303
-0.14757787 0.66547877 -0.10235166 28 3 1737281145494 0.68928737
-0.11741409 3.07563663 -0.81421781 4 0 1737281145494 3.18375209
-0.36260602 9.78935814 2.25174356 33 14 1737281145494 10.05153545
-3.82863784 16.69741821 4.57448292 48 15 1737281145494 17.73099367
-0.42924115 11.54371452 1.82201588 81 12 1737281145494 11.69450020
-0.42930156 11.60027885 1.01253176 90 10 1737281145494 11.65229548
-0.18959725 5.14315605 0.08922542 65 8 1737281145494 5.14742290
-1.74939442 7.78975344 0.41659421 9 9 1737281145494 7.99463509
-0.52880025 2.37106943 -0.04179851 3 7 1737281145494 2.42968045
-0.03309647 0.87550545 -0.10313745 75 4 1737281145494 0.88218054
-0.14736478 0.67632580 -0.05740803 28 5 1737281145494 0.69457084
-0.03237058 0.87610495 -0.16347179 66 2 1737281145494 0.89181319
-0.14362669 0.65876293 -0.10117970 31 3 1737281145494 0.68178777
-0.10692393 3.08326888 -0.81615651 3 0 1737281145494 3.19125229
-0.18161896 0.82365745 -0.18656822 107 1 1737281145494 0.86383143
-0.32770181 9.76865196 2.24668598 33 14 1737281145494 10.02903522
-0.38869524 11.53773880 1.82084394 90 12 1737281145494 11.68700018
-3.75237632 16.76707840 3.32996321 69 13 1737281145494 17.50153996
-0.38864040 11.59672928 1.01209605 90 10 1737281145494 11.64729624
-1.86881602 8.42300606 1.05358410 36 11 1737281145494 8.69192406
-0.17164312 5.14378643 0.08922542 66 8 1737281145494 5.14742279
-1.73947012 7.87381268 0.42078108 9 9 1737281145494 8.07463554
-0.52376145 2.38754439 -0.04206030 3 7 1737281145494 2.44468062
-0.03019954 0.88057590 -0.10374593 79 4 1737281145494 0.88718044
-0.14876750 0.69385850 -0.05893022 35 5 1737281145494 0.71207034
-0.02915889 0.87130672 -0.16251861 67 2 1737281145494 0.88681336
-0.14239435 0.66408199 -0.10196101 33 3 1737281145494 0.68678751
-0.09608690 3.08120942 -0.81551027 3 0 1737281145494 3.18875229
-0.17821340 0.82190853 -0.18600626 104 1 1737281145494 0.86133152
-0.29323742 9.75756168 2.24387622 33 14 1737281145494 10.01653526
-0.34856683 11.54395962 1.82162511 89 12 1737281145494 11.69199814
-3.68959975 16.76090240 3.32615066 73 13 1737281145494 17.48154095
-0.34793493 11.59054661 1.01144242 90 10 1737281145494 11.63979575
-1.83569050 8.41250801 1.05145431 36 11 1737281145494 8.67442256
-0.15376064 5.14685297 0.08926905 65 8 1737281145494 5.14992299
-1.73695159 7.99448633 0.42693058 8 9 1737281145494 8.19213539
-0.51542419 2.38935804 -0.04206030 3 7 1737281145494 2.44468056
-0.02705456 0.87819552 -0.10344169 78 4 1737281145494 0.88468046
-0.14687386 0.69680721 -0.05914767 39 5 1737281145494 0.71457026
-0.02632157 0.87876272 -0.16394839 66 2 1737281145494 0.89431304
-0.13902418 0.65974957 -0.10117970 34 3 1737281145494 0.68178776
-0.17273822 0.81062734 -0.18319651 101 1 1737281145494 0.84883222
-0.25866184 9.73904419 2.23938060 33 14 1737281145494 9.99653506
-1.80423129 8.27602005 2.25719285 12 15 1737281145494 8.76599555
-0.30800679 11.53523445 1.82006264 79 12 1737281145494 11.68200026
-3.62483191 16.74489594 3.32043147 61 13 1737281145494 17.45153894
-0.30714610 11.57924175 1.01035297 84 10 1737281145494 11.62729510
-1.80579245 8.41644001 1.05115008 38 11 1737281145494 8.67192397
-0.13585885 5.14985752 0.08931268 66 8 1737281145494 5.15242340
-0.50979936 2.40589738 -0.04232208 3 7 1737281145494 2.45968062
-0.02386420 0.87332332 -0.10283320 80 4 1737281145494 0.87968051
-0.02313489 0.87394238 -0.16299519 66 2 1737281145494 0.88931318
-0.13620320 0.65781635 -0.10078904 32 3 1737281145494 0.67928793
-0.17181516 0.82078123 -0.18544431 97 1 1737281145494 0.85883169
-0.22438620 9.72771168 2.23657084 33 14 1737281145494 9.98403589
-1.77634656 8.28699017 2.25848532 30 15 1737281145494 8.77099590
-0.26768255 11.53376961 1.81967187 82 12 1737281145494 11.67949918
-3.56380200 16.74544525 3.31804824 73 13 1737281145494 17.43903855
-1.77434909 8.41298103 1.04993308 36 11 1737281145494 8.66192381
-0.11687108 5.14532232 0.08922542 66 8 1737281145494 5.14742283
-0.50139815 2.40766215 -0.04232208 3 7 1737281145494 2.45968053
-0.02071642 0.87588578 -0.10313745 70 4 1737281145494 0.88218049
-0.02018606 0.87892514 -0.16394839 65 2 1737281145494 0.89431312
-0.13492365 0.66312033 -0.10157035 31 3 1737281145494 0.68428759
-0.16743709 0.81422603 -0.18375845 63 1 1737281145494 0.85133212
-0.18849701 9.71629047 2.23376107 33 14 1737281145494 9.97153550
-1.74795651 8.30289650 2.26107001 36 15 1737281145494 8.78099538
-0.22531173 11.52973557 1.81889057 88 12 1737281145494 11.67449915
-3.49737549 16.73437309 3.31328249 85 13 1737281145494 17.41403799
-1.74143720 8.40211678 1.04780340 35 11 1737281145494 8.64442374
-0.09985212 5.19568253 0.09009805 62 8 1737281145494 5.19742292
-0.49602443 2.42408538 -0.04258387 3 7 1737281145494 2.47468049
-0.01752506 0.86850977 -0.10222473 69 4 1737281145494 0.87468065
-0.01703311 0.87408262 -0.16299519 61 2 1737281145494 0.88931321
-0.13260812 0.66358727 -0.10157035 31 3 1737281145494 0.68428760
-0.16360258 0.81003535 -0.18263456 57 1 1737281145494 0.84633235
-0.15600480 9.69981289 2.22982740 33 14 1737281145494 9.95403626
-1.71353972 8.27554321 2.25202322 34 15 1737281145494 8.74599579
-0.18695754 11.52301216 1.81771863 86 12 1737281145494 11.66699890
-3.43839979 16.72905350 3.30994630 82 13 1737281145494 17.39653898
-0.13104206 8.22011280 0.71620232 3 10 1737281145494 8.25229497
-1.71011209 8.39841843 1.04658639 36 11 1737281145494 8.63442288
-0.08254442 5.19098663 0.09001078 32 8 1737281145494 5.19242311
-1.70423400 8.40695858 0.44773406 12 9 1737281145494 8.58963514
-0.01558787 0.90110654 -0.04540144 16 6 1737281145494 0.90238421
-0.48805681 2.42825174 -0.04262750 3 7 1737281145494 2.47718047
-0.01471764 0.87352538 -0.10283320 77 4 1737281145494 0.87968055
-0.01408340 0.88149858 -0.16442497 57 2 1737281145494 0.89681305
-0.13176659 0.67130554 -0.10274231 28 3 1737281145494 0.69178721
-0.15994000 0.80580008 -0.18151066 47 1 1737281145494 0.84133269
-0.12196404 9.68568230 2.22645569 28 14 1737281145494 9.93903525
-1.68512511 8.28384113 2.25266933 36 15 1737281145494 8.74849642
-0.14670259 11.52112675 1.81732810 79 12 1737281145494 11.66450019
-3.37609315 16.72171021 3.30613351 78 13 1737281145494 17.37653924
-0.10378246 8.22050285 0.71620232 4 10 1737281145494 8.25229566
-1.67932189 8.39703846 1.04567373 36 11 1737281145494 8.62692358
-0.06499591 5.23873234 0.09083977 31 8 1737281145494 5.23992298
-1.67781043 8.42754555 0.44851911 14 9 1737281145494 8.60463487
-0.01235474 0.89366615 -0.04500892 28 6 1737281145494 0.89488414
-0.48049068 2.43230820 -0.04267113 3 7 1737281145494 2.47968048
-0.01161294 0.86860889 -0.10222473 81 4 1737281145494 0.87468061
-0.23982418 1.22684455 -0.10611788 100 5 1737281145494 1.25456135
-0.01105685 0.88645041 -0.16537817 53 2 1737281145494 0.90181291
-0.13280647 0.68871194 -0.10547691 21 3 1737281145494 0.70928631
-0.01505519 1.36553144 -0.35605875 90 0 1737281145494 1.41126915
-0.15856451 0.81351864 -0.18319651 63 1 1737281145494 0.84883229
-0.08806723 9.67630482 2.22420788 25 14 1737281145494 9.92903477
-1.65335202 8.27546310 2.24879217 36 15 1737281145494 8.73349465
-0.10644063 11.51662922 1.81654668 78 12 1737281145494 11.65949913
-3.31387949 16.71413612 3.30232096 79 13 1737281145494 17.35653961
-0.07517559 8.23077583 0.71707386 3 10 1737281145494 8.26229491
-1.64856243 8.39554596 1.04476106 37 11 1737281145494 8.61942433
-0.04666618 5.23392820 0.09075250 32 8 1737281145494 5.23492294
-1.65222454 8.45295143 0.44956586 31 9 1737281145494 8.62463584
-0.00919423 0.88871080 -0.04474724 35 6 1737281145494 0.88988411
-0.47295818 2.43887663 -0.04275839 3 7 1737281145494 2.48468045
-0.00856180 0.86616278 -0.10192049 71 4 1737281145494 0.87218063
-0.23506202 1.22522986 -0.10590042 98 5 1737281145494 1.25206120
-0.00792908 0.88157541 -0.16442497 49 2 1737281145494 0.89681304
-0.13372639 0.70613354 -0.10821149 20 3 1737281145494 0.72678543
-0.01027375 1.36316061 -0.35541254 90 0 1737281145494 1.40876913
-0.15383954 0.80450702 -0.18094870 74 1 1737281145494 0.83883287
-0.05415828 9.65219402 2.21858835 33 14 1737281145494 9.90403538
-1.62259042 8.27170658 2.24620724 36 15 1737281145494 8.72349565
-0.06621185 11.51199150 1.81576538 90 12 1737281145494 11.65449854
-3.25269866 16.71114731 3.29946113 80 13 1737281145494 17.34153790
-0.02838342 5.23155928 0.09070887 32 8 1737281145494 5.23242259
-1.67317593 8.72099018 0.46356574 16 9 1737281145494 8.89213589
-0.00606847 0.88374442 -0.04448556 42 6 1737281145494 0.88488417
-0.46590161 2.45041299 -0.04293292 3 7 1737281145494 2.49468061
-0.00552789 0.86370599 -0.10161625 71 4 1737281145494 0.86968067
-0.23103902 1.22852921 -0.10611788 98 5 1737281145494 1.25456130
-0.00483549 0.87668943 -0.16347179 44 2 1737281145494 0.89181319
-0.13592580 0.73084426 -0.11211804 40 3 1737281145494 0.75178428
-0.00528335 1.36560416 -0.35605875 86 0 1737281145494 1.41126910
-0.15227677 0.81224072 -0.18263456 57 1 1737281145494 0.84633243
-0.02044212 9.64014435 2.21577859 34 14 1737281145494 9.89153556
-1.59050155 8.26072025 2.24168396 36 15 1737281145494 8.70599456
-0.02602193 11.50968361 1.81537461 88 12 1737281145494 11.65199892
-3.19065714 16.70311737 3.29564857 77 13 1737281145495 17.32153926
-0.00920861 5.23162889 0.09070887 31 8 1737281145495 5.23242332
-0.00281889 0.87377441 -0.04396220 47 6 1737281145495 0.87488419
-0.45734528 2.45202446 -0.04293292 3 7 1737281145495 2.49468072
-0.00236221 0.86372048 -0.10161625 82 4 1737281145495 0.86968069
-0.22536711 1.22198546 -0.10546552 99 5 1737281145495 1.24706126
-0.00177481 0.87915510 -0.16394839 42 2 1737281145495 0.89431310
-0.13520600 0.74102008 -0.11368066 36 3 1737281145495 0.76178391
-0.00051900 1.36319923 -0.35541254 90 0 1737281145495 1.40876914
-0.14989455 0.81516063 -0.18319651 49 1 1737281145495 0.84883225
0.01483989 9.61092186 2.20903516 34 14 1737281145495 9.86153515
-1.55976462 8.26412201 2.24103785 35 15 1737281145495 8.70349521
0.01616335 11.50970173 1.81537461 81 12 1737281145495 11.65199898
-3.12760687 16.70505333 3.29374218 78 13 1737281145495 17.31154150
0.01825891 11.55590439 1.00795615 90 10 1737281145495 11.59979462
0.00905324 5.23162889 0.09070887 30 8 1737281145495 5.23242305
0.00022507 0.87128234 -0.04383136 60 6 1737281145495 0.87238418
-0.45150867 2.46835375 -0.04319470 3 7 1737281145495 2.50968048
0.00064539 0.86124206 -0.10131200 90 4 1737281145495 0.86718073
-0.22155237 1.22521377 -0.10568296 98 5 1737281145495 1.24956117
0.00131201 0.88406426 -0.16490158 39 2 1737281145495 0.89931300
-0.13216896 0.73905945 -0.11329000 36 3 1737281145495 0.75928396
0.00421754 1.35836279 -0.35412014 90 0 1737281145495 1.40376933
-0.14660260 0.81328392 -0.18263456 49 1 1737281145495 0.84633235
0.04662446 9.59376812 2.20510149 34 14 1737281145495 9.84403541
-1.52926183 8.25262928 2.23651433 35 15 1737281145495 8.68599609
0.05430667 11.50464821 1.81459343 82 12 1737281145495 11.64700086
-3.06730652 16.68878174 3.28849959 75 13 1737281145495 17.28403989
0.05858340 11.55327988 1.00773835 90 10 1737281145495 11.59729471
-1.69107556 9.29410744 1.15398335 20 11 1737281145495 9.51692425
0.02645599 5.24156857 0.09088340 31 8 1737281145495 5.24242317
0.00311435 0.87127680 -0.04383136 56 6 1737281145495 0.87238417
-0.44378105 2.47483397 -0.04328196 3 7 1737281145495 2.51468052
0.00350137 0.86123514 -0.10131200 88 4 1737281145495 0.86718069
-0.21837628 1.23084319 -0.10611788 97 5 1737281145495 1.25456134
0.00439797 0.88405430 -0.16490158 37 2 1737281145495 0.89931301
-0.13091162 0.74680501 -0.11446197 37 3 1737281145495 0.76678362
0.00893969 1.35592473 -0.35347393 90 0 1737281145495 1.40126928
-0.14346720 0.81136930 -0.18207261 56 1 1737281145495 0.84383257
0.07994602 9.57405949 2.20060587 35 14 1737281145495 9.82403545
-1.49957931 8.25316429 2.23522186 35 15 1737281145495 8.68099509
0.09442367 11.49944878 1.81381214 82 12 1737281145495 11.64199950
-3.00728941 16.68972588 3.28659320 83 13 1737281145495 17.27403932
0.09680994 11.54306030 1.00686669 90 10 1737281145495 11.58729450
-1.64027441 9.19736099 1.14120519 15 11 1737281145495 9.41192322
0.04484132 5.25144196 0.09105792 30 8 1737281145495 5.25242276
0.00615565 0.87126064 -0.04383136 54 6 1737281145495 0.87238420
-0.43775922 2.48859715 -0.04350012 4 7 1737281145495 2.52718048
0.00650762 0.86121774 -0.10131200 81 4 1737281145495 0.86718076
-0.21277207 1.22424138 -0.10546552 98 5 1737281145495 1.24706130
0.00732710 0.86930943 -0.16204201 32 2 1737281145495 0.88431339
-0.12960181 0.75455076 -0.11563394 37 3 1737281145495 0.77428333
0.01335386 1.34864306 -0.35153532 84 0 1737281145495 1.39376954
-0.13762906 0.79507983 -0.17813893 57 1 1737281145495 0.82633357
0.11315989 9.55667210 2.19667220 35 14 1737281145495 9.80653636
-1.46821272 8.24408531 2.23134446 34 15 1737281145495 8.66599615
0.13453436 11.49657917 1.81342137 82 12 1737281145495 11.63949866
-2.94559383 16.68078804 3.28278041 70 13 1737281145495 17.25403894
0.13707216 11.54016304 1.00664890 89 10 1737281145495 11.58479580
-1.60087812 9.16147995 1.13603318 10 11 1737281145495 9.36942352
0.06323395 5.25625229 0.09114519 25 8 1737281145495 5.25742276
0.00910146 0.86374474 -0.04343884 58 6 1737281145495 0.86488423
-0.42992753 2.49503517 -0.04358738 4 7 1737281145495 2.53218049
0.00941505 0.85374612 -0.10039929 80 4 1737281145495 0.85968081
-0.20892428 1.22743034 -0.10568296 98 5 1737281145495 1.24956132
0.01050028 0.87909412 -0.16394839 26 2 1737281145495 0.89431304
-0.12866363 0.76472890 -0.11719656 36 3 1737281145495 0.78428290
0.01816890 1.35583258 -0.35347393 59 0 1737281145495 1.40126939
-0.13527380 0.79795474 -0.17870088 61 1 1737281145495 0.82883338
0.14636686 9.54647541 2.19442439 35 14 1737281145495 9.79653584
-1.43817711 8.24202251 2.22940612 33 15 1737281145495 8.65849526
0.17462617 11.49357224 1.81303084 84 12 1737281145495 11.63700038
-2.88441610 16.67404175 3.27944422 62 13 1737281145495 17.23653906
0.17747006 11.54708481 1.00730252 83 10 1737281145495 11.59229578
-1.59617579 9.32597923 1.15580869 8 11 1737281145495 9.53192318
0.08146221 5.24850178 0.09101429 18 8 1737281145495 5.24992291
-1.60026705 9.39888668 0.49784577 10 9 1737281145495 9.54713443
0.01211644 0.86370772 -0.04343884 60 6 1737281145495 0.86488425
-0.42036003 2.49412990 -0.04354375 4 7 1737281145495 2.52968033
0.01243670 0.85618913 -0.10070353 85 4 1737281145495 0.86218078
-0.20400620 1.22573256 -0.10546552 97 5 1737281145495 1.24706127
-0.12599345 0.76517338 -0.11719656 33 3 1737281145495 0.78428291
-0.12905128 0.77923799 -0.17420526 53 1 1737281145495 0.80883468
0.17945768 9.53372765 2.19161463 36 14 1737281145495 9.78403509
-1.40654111 8.23033047 2.22488260 33 15 1737281145495 8.64099532
0.21465208 11.48795414 1.81224954 83 12 1737281145495 11.63199958
-2.82208991 16.65981483 3.27467847 56 13 1737281145495 17.21154092
0.21964762 11.53888607 1.00664890 90 10 1737281145495 11.58479516
-1.56978130 9.36820030 1.16037238 16 11 1737281145495 9.56942288
0.10089383 5.25816488 0.09118882 13 8 1737281145495 5.25992328
-1.56786370 9.41700172 0.49849996 18 9 1737281145495 9.55963494
0.01523233 0.86116147 -0.04330800 61 6 1737281145495 0.86238430
-0.41411892 2.51037550 -0.04380554 4 7 1737281145495 2.54468044
0.01557470 0.85613781 -0.10070353 88 4 1737281145495 0.86218080
-0.19972636 1.22643721 -0.10546552 98 5 1737281145495 1.24706128
-0.12413597 0.77047956 -0.11797787 31 3 1737281145495 0.78928276
-0.12592672 0.77728128 -0.17364331 56 1 1737281145495 0.80633475
0.21390192 9.51108837 2.18655705 36 14 1737281145495 9.76153614
-1.37516773 8.22828484 2.22294378 36 15 1737281145495 8.63349504
0.25670049 11.48462009 1.81185877 84 12 1737281145495 11.62949810
-2.75940299 16.66036034 3.27277207 58 13 1737281145495 17.20153913
0.25992450 11.53804970 1.00664890 90 10 1737281145495 11.58479579
-1.53707051 9.37362385 1.16037238 25 11 1737281145495 9.56942390
0.12011136 5.29526472 0.09184328 10 8 1737281145495 5.29742300
0.01812149 0.85611129 -0.04304632 73 6 1737281145495 0.85738434
-0.40615883 2.51673961 -0.04389280 4 7 1737281145495 2.54968034
0.01844443 0.85111684 -0.10009505 85 4 1737281145495 0.85718089
-0.19584484 1.22958493 -0.10568296 96 5 1737281145495 1.24956120
-0.12383747 0.78552949 -0.12032180 28 3 1737281145495 0.80428207
-0.12242203 0.77290875 -0.17251940 54 1 1737281145495 0.80133515
0.24499728 9.49327946 2.18262339 38 14 1737281145495 9.74403527
-1.34513342 8.21611881 2.21842051 35 15 1737281145495 8.61599569
0.29484725 11.48617554 1.81224954 86 12 1737281145495 11.63199947
-2.70177841 16.65488625 3.26991248 58 13 1737281145495 17.18654038
0.30013305 11.53458214 1.00643098 90 10 1737281145495 11.58229547
0.13668239 5.25735569 0.09118882 7 8 1737281145495 5.25992265
0.02096036 0.85604644 -0.04304632 73 6 1737281145495 0.85738429
-0.39855346 2.52554727 -0.04402369 5 7 1737281145495 2.55718047
0.02113163 0.84609002 -0.09948657 75 4 1737281145495 0.85218099
-0.19294412 1.23760581 -0.10633533 92 5 1737281145495 1.25706117
-0.12031449 0.78108048 -0.11954049 37 3 1737281145495 0.79928232
-0.12179518 0.78533560 -0.17532916 43 1 1737281145495 0.81383437
0.27748692 9.47045135 2.17756581 39 14 1737281145495 9.72153490
-1.31567931 8.21599388 2.21712804 35 15 1737281145495 8.61099438
0.33472252 11.47767162 1.81107759 90 12 1737281145495 11.62449943
-2.64092922 16.64725113 3.26657629 58 13 1737281145495 17.16904185
0.33808765 11.52356529 1.00555933 90 10 1737281145495 11.57229493
0.02387302 0.85347265 -0.04291548 67 6 1737281145495 0.85488433
-0.38857895 2.51951385 -0.04389280 5 7 1737281145495 2.54968041
0.02393248 0.84105057 -0.09887809 58 4 1737281145495 0.84718103
-0.18687241 1.22846150 -0.10546552 85 5 1737281145495 1.24706132
0.03971616 1.31785095 -0.24925874 43 2 1737281145495 1.34180416
-0.11835046 0.78637493 -0.12032180 56 3 1737281145495 0.80428210
-0.11853740 0.78337020 -0.17476721 50 1 1737281145495 0.81133443
0.31022191 9.45968723 2.17531800 43 14 1737281145495 9.71153585
-1.28436792 8.20383644 2.21260452 35 15 1737281145495 8.59349475
0.37494701 11.48136806 1.81185877 89 12 1737281145495 11.62949827
-2.58129644 16.64666748 3.26466990 65 13 1737281145495 17.15904132
0.38023877 11.51976013 1.00534153 92 10 1737281145495 11.56979544
-1.57224381 10.32891464 0.54573315 11 9 1737281145495 10.46213425
0.02691648 0.85088432 -0.04278464 67 6 1737281145495 0.85238439
-0.38128901 2.53073907 -0.04406732 3 7 1737281145495 2.55968035
0.02675902 0.83351737 -0.09796537 54 4 1737281145495 0.83968117
-0.18258315 1.22910619 -0.10546552 73 5 1737281145495 1.24706119
0.04405784 1.31034625 -0.24782895 44 2 1737281145495 1.33430415
-0.11672403 0.79410613 -0.12149376 58 3 1737281145495 0.81178185
-0.11654252 0.78859478 -0.17589112 56 1 1737281145495 0.81633423
0.34506986 9.46335602 2.17644191 110 14 1737281145495 9.71653640
-1.25429070 8.20848942 2.21260452 35 15 1737281145495 8.59349536
0.41684574 11.47498322 1.81107759 89 12 1737281145495 11.62450008
-2.51695514 16.63417816 3.26038051 61 13 1737281145495 17.13654070
0.42053920 11.52085114 1.00555933 91 10 1737281145495 11.57229509
-1.54427910 10.38866520 0.54861164 14 9 1737281145495 10.51713541
0.02970000 0.84579545 -0.04252296 65 6 1737281145495 0.84738435
-0.37466183 2.54688883 -0.04432911 4 7 1737281145495 2.57468042
0.02966838 0.83341891 -0.09796537 62 4 1737281145495 0.83968119
-0.18122289 1.24944353 -0.10720515 44 5 1737281145495 1.26706109
0.04847994 1.30036688 -0.24592258 43 2 1737281145495 1.32430444
-0.11381270 0.79452860 -0.12149376 50 3 1737281145495 0.81178185
-0.11415084 0.79140568 -0.17645307 42 1 1737281145495 0.81883396
0.37751442 9.44748783 2.17307019 72 14 1737281145495 9.70153480
-1.22384119 8.20087624 2.20937371 36 15 1737281145495 8.58099589
0.45679969 11.47098923 1.81068683 89 12 1737281145495 11.62199839
-2.45707917 16.63072395 3.25799775 57 13 1737281145495 17.12404060
0.46065199 11.51682472 1.00534153 90 10 1737281145495 11.56979531
-1.51288474 10.36417103 1.27993882 33 11 1737281145495 10.55192422
-1.51016355 10.40881443 0.54939663 21 9 1737281145495 10.53213409
0.03265220 0.84568667 -0.04252296 65 6 1737281145495 0.84738440
-0.36684784 2.55560184 -0.04446000 3 7 1737281145495 2.58218024
0.03216692 0.82339299 -0.09674840 53 4 1737281145495 0.82968125
-0.11246099 0.80469519 -0.12305639 53 3 1737281145495 0.82178142
-0.11209431 0.79661995 -0.17757697 48 1 1737281145495 0.82383376
0.40884134 9.44618511 2.17307019 44 14 1737281145494 9.70153588
-1.19593954 8.20011044 2.20808125 35 15 1737281145494 8.57599588
0.49462262 11.46447754 1.80990553 90 12 1737281145494 11.61699853
-2.39875436 16.61691856 3.25370812 58 13 1737281145494 17.10153857
0.49873242 11.51274586 1.00512362 90 10 1737281145494 11.56729548
-1.47815621 10.36667252 1.27963448 35 11 1737281145494 10.54942222
-1.47458446 10.40635014 0.54900414 36 9 1737281145494 10.52463434
0.03534621 0.84307957 -0.04239212 72 6 1737281145494 0.84488437
-0.35907382 2.56175423 -0.04454727 3 7 1737281145494 2.58718055
0.03412137 0.80592918 -0.09461872 39 4 1737281145494 0.81218152
-0.11118191 0.81484258 -0.12461901 59 3 1737281145494 0.83178107
-0.10876131 0.79216439 -0.17645307 61 1 1737281145494 0.81883400
0.44146922 9.43739986 2.17138433 40 14 1737281145494 9.69403534
-1.16594255 8.19467258 2.20549655 35 15 1737281145494 8.56599649
0.53463805 11.46268177 1.80990553 88 12 1737281145494 11.61699915
0.53856570 11.50347137 1.00446987 90 10 1737281145494 11.55979526
-1.44024682 10.35948086 1.27811337 35 11 1737281145494 10.53692215
0.03768675 0.83645958 0.01400556 5 8 1737281145494 0.83742526
-1.43893600 10.41637993 0.54926586 70 9 1737281145494 10.52963440
0.03793216 0.83546984 -0.04199960 74 6 1737281145494 0.83738442
-0.35218561 2.57784772 -0.04480905 3 7 1737281145494 2.60218013
0.03621746 0.79093403 -0.09279328 38 4 1737281145494 0.79718187
-0.10867587 0.81767160 -0.12500966 63 3 1737281145494 0.83428095
0.00843812 0.20864721 -0.04652673 11 0 1737281145494 0.21393830
-0.10700626 0.79977703 -0.17813893 46 1 1737281145494 0.82633354
0.47305816 9.40903950 2.16520286 27 14 1737281145494 9.66653566
-1.13533163 8.18434048 2.20161915 35 15 1737281145494 8.55099607
0.57452303 11.45828056 1.80951488 86 12 1737281145494 11.61450017
0.57871705 11.50152111 1.00446987 94 10 1737281145494 11.55979502
-1.40407681 10.36444569 1.27811337 42 11 1737281145494 10.53692269
0.04174839 0.85879046 0.01439823 8 8 1737281145494 0.85992516
-1.40189886 10.41639137 0.54900414 90 9 1737281145494 10.52463468
0.04084826 0.83533239 -0.04199960 73 6 1737281145494 0.83738447
-0.34406942 2.58903050 -0.04498357 4 7 1737281145494 2.61218036
-0.10747311 0.83028138 -0.12696294 56 3 1737281145494 0.84678051
0.00920280 0.20861487 -0.04652673 12 0 1737281145494 0.21393829
-0.10473037 0.80499160 -0.17926283 53 1 1737281145494 0.83133332
0.50458586 9.38300610 2.15958333 34 14 1737281145494 9.64153569
-1.10545647 8.17868042 2.19903445 36 15 1737281145494 8.54099525
0.61451638 11.45620441 1.80951488 86 12 1737281145494 11.61449930
-1.38033462 10.33872128 2.01885295 47 13 1737281145494 10.62404106
0.62073368 11.49683666 1.00425208 90 10 1737281145494 11.55729578
-1.36723816 10.36436367 1.27750480 85 11 1737281145494 10.53192257
0.04503178 0.86112761 0.01444187 8 8 1737281145494 0.86242518
-1.36143661 10.40413189 0.54808831 92 9 1737281145494 10.50713428
0.04336262 0.82520568 -0.04147624 67 6 1737281145494 0.82738444
-0.33567986 2.59517241 -0.04507084 4 7 1737281145494 2.61718019
-0.42357033 3.26995182 -0.28486562 74 5 1737281145494 3.30955362
-0.10425236 0.82820338 -0.12657230 70 3 1737281145494 0.84428072
0.00951893 0.20134808 -0.04458812 13 0 1737281145494 0.20644554
-0.10319839 0.81501204 -0.18151066 50 1 1737281145494 0.84133266
0.53813159 9.36650181 2.15621161 36 14 1737281145494 9.62653574
-1.07484066 8.17788887 2.19774199 36 15 1737281145494 8.53599547
0.65635961 11.45141029 1.80912423 86 12 1737281145494 11.61199966
-1.34148133 10.33641052 2.01742291 79 13 1737281145494 10.61654133
0.66071790 11.49211311 1.00403416 90 10 1737281145494 11.55479539
-1.32829225 10.36192226 1.27659214 90 11 1737281145494 10.52442306
0.04905072 0.87843305 0.01474728 32 8 1737281145494 0.87992504
-1.32384562 10.39891529 0.54756492 97 9 1737281145494 10.49713455
0.04609741 0.82255697 -0.04134540 61 6 1737281145494 0.82488447
-0.32661897 2.59632850 -0.04507084 4 7 1737281145494 2.61718035
-0.41215348 3.27141047 -0.28486562 58 5 1737281145494 3.30955365
-0.10215485 0.83592796 -0.12774426 67 3 1737281145494 0.85178035
0.01051321 0.20613492 -0.04588053 14 0 1737281145494 0.21144066
-0.10128650 0.82261550 -0.18319651 40 1 1737281145494 0.84883225
0.56918758 9.33782005 2.15003014 35 14 1737281145494 9.59903576
-1.04474962 8.16961479 2.19451094 36 15 1737281145494 8.52349611
0.69647890 11.45151520 1.80951488 85 12 1737281145494 11.61450073
-1.30261624 10.31911755 2.01313353 86 13 1737281145494 10.59404090
0.70098096 11.49222279 1.00425208 92 10 1737281145494 11.55729558
-1.29026616 10.35172176 1.27476668 94 11 1737281145494 10.50942245
0.05180979 0.87326676 0.01466002 38 8 1737281145494 0.87492514
-1.28876948 10.41338253 0.54808831 96 9 1737281145494 10.50713392
0.04881424 0.81989920 -0.04121456 53 6 1737281145494 0.82238444
-0.31940004 2.61233640 -0.04533262 4 7 1737281145494 2.63218025
-0.40042555 3.27035785 -0.28464818 44 5 1737281145494 3.30705392
-0.10136677 0.85343266 -0.13047884 63 3 1737281145494 0.86927973
0.01169519 0.21332730 -0.04781915 16 0 1737281145494 0.21893375
-0.09932276 0.83021545 -0.18488236 42 1 1737281145494 0.85633183
0.60099322 9.32362175 2.14722037 36 14 1737281145494 9.58653591
-1.01622581 8.17321205 2.19451094 35 15 1737281145494 8.52349625
0.73597103 11.44161987 1.80834281 82 12 1737281145494 11.60699885
-1.26358867 10.29924393 2.00836778 90 13 1737281145494 10.56904078
0.74093127 11.48721981 1.00403416 92 10 1737281145494 11.55479479
-1.25653124 10.36087036 1.27537513 96 11 1737281145494 10.51442281
0.05518209 0.87806928 0.01474728 40 8 1737281145494 0.87992512
-1.25330937 10.42525482 0.54848081 90 9 1737281145494 10.51463521
0.05069883 0.80477631 -0.04042953 49 6 1737281145494 0.80738456
-0.31087735 2.61839867 -0.04541989 4 7 1737281145494 2.63718017
-0.38841248 3.26679015 -0.28421324 74 5 1737281145494 3.30205380
0.01230120 0.21373482 -0.03479137 14 2 1737281145494 0.21689706
-0.09883235 0.85621560 -0.13086949 77 3 1737281145494 0.87177968
0.01195204 0.20605648 -0.04588053 18 0 1737281145494 0.21144064
-0.09789589 0.84264797 -0.18769212 42 1 1737281145494 0.86883113
0.63058597 9.30213356 2.14272475 35 14 1737281145494 9.56653526
-0.98824275 8.16934490 2.19257236 36 15 1737281145494 8.51599632
0.77357465 11.43418980 1.80756164 86 12 1737281145494 11.60199953
-1.22942817 10.30337811 2.00836778 91 13 1737281145494 10.56904135
0.78085530 11.48208046 1.00381625 90 10 1737281145494 11.55229647
-1.21977484 10.36026573 1.27476668 91 11 1737281145494 10.50942371
0.05741179 0.86790621 0.01457276 40 8 1737281145494 0.86992510
-1.21931267 10.43431187 0.54874247 81 9 1737281145494 10.51963430
0.05268285 0.79464096 -0.03990617 43 6 1737281145494 0.79738462
-0.30260652 2.62691617 -0.04555078 4 7 1737281145494 2.64468035
-0.37699872 3.26311278 -0.28377834 30 5 1737281145494 3.29705372
0.01339044 0.21858689 -0.03574456 14 2 1737281145494 0.22189459
-0.09699365 0.86636525 -0.13243212 90 3 1737281145494 0.88177933
0.01267124 0.20601353 -0.04588053 19 0 1737281145494 0.21144067
-0.09424205 0.83571053 -0.18600626 46 1 1737281145494 0.86133151
0.66218394 9.28772640 2.13991499 34 14 1737281145494 9.55403504
-0.95887125 8.16554737 2.19063354 36 15 1737281145494 8.50849418
0.81277996 11.42156696 1.80599904 83 12 1737281145494 11.59199878
-1.19345522 10.30760670 2.00836778 95 13 1737281145494 10.56904122
0.81821644 11.46949100 1.00294471 88 10 1737281145494 11.54229614
-1.18558168 10.38171673 1.27689636 90 11 1737281145494 10.52692312
0.06026184 0.86520731 0.01452913 43 8 1737281145494 0.86742509
-1.18514037 10.45835018 0.54978919 73 9 1737281145494 10.53963540
0.05545634 0.79445225 -0.03990617 43 6 1737281145494 0.79738465
-0.29540673 2.64534235 -0.04585620 5 7 1737281145494 2.66218032
-0.36531645 3.26694751 -0.28399581 73 5 1737281145494 3.29955387
0.01397320 0.21609129 -0.03526797 15 2 1737281145494 0.21939582
-0.09508529 0.87651241 -0.13399473 95 3 1737281145494 0.89177901
0.01303149 0.20115131 -0.04458812 20 0 1737281145494 0.20644556
