# .PCD v0.7 - Point Cloud Data file format
VERSION 0.7
FIELDS x y z intensity laser_id timestamp distance_m
SIZE 4 4 4 1 1 8 8
TYPE F F F U U I F
COUNT 1 1 1 1 1 1 1
WIDTH 718
HEIGHT 1
VIEWPOINT 0 0 0 1 0 0 0
POINTS 718
DATA ascii
5.91567659 -5.66236258 -0.99973357 45 4 1737281142202 8.24966949
3.12790442 -2.04684186 -0.32335511 97 5 1737281142202 3.75205359
2.97350335 -2.84981203 -0.79305267 71 2 1737281142202 4.19429176
3.11042190 -2.03391886 -0.58246690 97 3 1737281142202 3.76175730
2.92285061 -2.80511403 -1.07463825 79 0 1737281142202 4.19124895
3.51483703 -3.37853765 1.11659956 38 14 1737281142202 5.00153882
3.25044417 -2.12207747 1.02940392 90 15 1737281142202 4.01600206
13.84167194 -13.30817699 3.03226566 31 12 1737281142202 19.43949825
3.22907424 -2.11614561 0.74301028 94 13 1737281142202 3.93154638
3.19699359 -2.10231352 0.46487913 95 11 1737281142202 3.85442638
3.17488050 -2.09175634 0.19743738 97 9 1737281142202 3.80713703
3.15537977 -2.07973099 -0.06535926 96 7 1737281142202 3.77967913
5.91195107 -5.69848013 -1.00247169 44 4 1737281142202 8.27216965
3.12074041 -2.05774760 -0.32335511 96 5 1737281142202 3.75205336
2.96177268 -2.85846877 -0.79257601 77 2 1737281142202 4.19179172
3.10330296 -2.04476404 -0.58246690 96 3 1737281142202 3.76175716
2.90783381 -2.81026244 -1.07269979 79 0 1737281142202 4.18374919
3.09041929 -2.03171396 -0.84517652 95 1 1737281142202 3.79379446
3.50302243 -3.39078617 1.11659956 38 14 1737281142202 5.00153892
3.24503636 -2.13473558 1.03005016 92 15 1737281142202 4.01850225
13.78981113 -13.35125923 3.03109360 32 12 1737281142202 19.43199791
3.22166777 -2.12740421 0.74301028 93 13 1737281142202 3.93154628
3.19377613 -2.11619663 0.46548760 95 11 1737281142202 3.85942649
3.16755962 -2.10282588 0.19743738 96 9 1737281142202 3.80713700
3.14981961 -2.09266257 -0.06540289 96 7 1737281142202 3.78217897
5.90626431 -5.73291159 -1.00490558 43 4 1737281142202 8.29216911
3.12148046 -2.07467628 -0.32422492 96 5 1737281142202 3.76205313
2.95001793 -2.86707878 -0.79209942 49 2 1737281142202 4.18929206
3.09614658 -2.05558419 -0.58246690 95 3 1737281142202 3.76175727
2.90097332 -2.82427216 -1.07399201 78 0 1737281142202 4.18874901
3.07888722 -2.04034114 -0.84405261 96 1 1737281142202 3.78879444
3.48767734 -3.39959145 1.11547565 39 14 1737281142202 4.99653892
3.23756480 -2.14604998 1.03005016 90 15 1737281142202 4.01850217
13.75019455 -13.40620899 3.03265619 33 12 1737281142202 19.44199818
3.21626711 -2.13999391 0.74348688 92 13 1737281142202 3.93404636
3.18636966 -2.12733197 0.46548760 92 11 1737281142202 3.85942633
3.16398430 -2.11719322 0.19769907 96 9 1737281142202 3.81213703
3.14041686 -2.10225677 -0.06535926 95 7 1737281142202 3.77967901
5.89940310 -5.76840258 -1.00733960 42 4 1737281142202 8.31216929
3.11629081 -2.08694291 -0.32444239 94 5 1737281142202 3.76455336
2.97680736 -2.91342378 -0.80210799 39 2 1737281142202 4.24179176
3.09716892 -2.07186103 -0.58402956 96 3 1737281142202 3.77175741
2.89282084 -2.83607292 -1.07463825 78 0 1737281142202 4.19124914
3.07174635 -2.05107617 -0.84405261 96 1 1737281142202 3.78879452
3.47866869 -3.41576624 1.11659956 38 14 1737281142202 5.00153871
3.23168731 -2.15924120 1.03069639 90 15 1737281142202 4.02100242
13.69744396 -13.45305443 3.03187513 32 12 1737281142202 19.43699852
3.21044207 -2.15313268 0.74396348 91 13 1737281142202 3.93654674
3.18304586 -2.14120674 0.46609607 90 11 1737281142202 3.86442659
3.15657449 -2.12822461 0.19769907 91 9 1737281142202 3.81213686
15.74064445 -15.48723316 -1.15544701 2 6 1737281142202 22.11237971
3.13720751 -2.11599660 -0.06544652 92 7 1737281142202 3.78467909
5.90574789 -5.81508112 -1.01190305 42 4 1737281142202 8.34966912
3.11105299 -2.09919858 -0.32465982 92 5 1737281142202 3.76705314
2.95788383 -2.91517949 -0.79972494 27 2 1737281142202 4.22929169
3.09196711 -2.08403707 -0.58442020 93 3 1737281142202 3.77425728
2.88805676 -2.85124588 -1.07657695 75 0 1737281142202 4.19874896
3.06861377 -2.06450033 -0.84517652 94 1 1737281142202 3.79379433
3.46732259 -3.42728305 1.11659956 38 14 1737281142202 5.00153872
3.23052478 -2.17398381 1.03263497 90 15 1737281142202 4.02850232
13.65977955 -13.50535011 3.03343773 31 12 1737281142202 19.44699986
3.20531964 -2.16513824 0.74444008 90 13 1737281142202 3.93904667
3.18171930 -2.15647364 0.46700880 90 11 1737281142202 3.87192633
3.15570092 -2.14288068 0.19809158 90 9 1737281142202 3.81963692
15.62534809 -15.47609234 -1.15073681 2 6 1737281142202 22.02237799
3.13600922 -2.13114190 -0.06557741 90 7 1737281142202 3.79217879
3.10613632 -2.11090112 -0.32487726 90 5 1737281142202 3.76955324
2.80143833 -2.78020191 -0.75969106 4 2 1737281142202 4.01929221
3.08467340 -2.09481740 -0.58442020 90 3 1737281142202 3.77425714
2.87637448 -2.85960603 -1.07593071 62 0 1737281142202 4.19624877
3.06780577 -2.07875681 -0.84686238 91 1 1737281142202 3.80129425
3.45361185 -3.43764615 1.11603761 38 14 1737281142202 4.99903849
3.22691751 -2.18795300 1.03392744 90 15 1737281142202 4.03350231
13.60730362 -13.54772091 3.03226566 32 12 1737281142202 19.43949816
3.20180321 -2.17907023 0.74539322 90 13 1737281142202 3.94404639
3.17417240 -2.16756678 0.46700880 90 11 1737281142202 3.87192631
3.15232611 -2.15669751 0.19835328 90 9 1737281142202 3.82463698
15.52881145 -15.48822594 -1.14759660 2 6 1737281142202 21.96237933
3.13061547 -2.14348555 -0.06562105 90 7 1737281142202 3.79467912
3.10249186 -2.12508130 -0.32531220 88 5 1737281142202 3.77455352
2.77957106 -2.77781439 -0.75635493 1 2 1737281142202 4.00179220
3.08550096 -2.11113954 -0.58598280 90 3 1737281142202 3.78425714
3.06016636 -2.08998704 -0.84686238 90 1 1737281142202 3.80129450
3.44503140 -3.45313096 1.11716151 38 14 1737281142202 5.00403883
3.22125649 -2.20056367 1.03457367 90 15 1737281142202 4.03600255
13.56167412 -13.59688568 3.03265619 33 12 1737281142202 19.44199858
3.19417715 -2.19023347 0.74539322 90 13 1737281142202 3.94404632
3.17272496 -2.18284607 0.46792153 88 11 1737281142202 3.87942666
3.15262842 -2.17389631 0.19887663 90 9 1737281142202 3.83463728
15.38917160 -15.46186352 -1.14144719 2 6 1737281142202 21.84487875
3.12929225 -2.15865111 -0.06575194 89 7 1737281142202 3.80217937
2.89676714 -2.91129923 -0.49925828 24 4 1737281142202 4.13717076
3.10120940 -2.14013433 -0.32596454 86 5 1737281142202 3.78205336
2.74046516 -2.75789118 -0.74825281 2 2 1737281142202 3.95929228
3.08421731 -2.12609410 -0.58715475 90 3 1737281142202 3.79175728
3.06289530 -2.10754848 -0.84967214 75 1 1737281142202 3.81379482
3.42892456 -3.46227145 1.11603761 38 14 1737281142202 4.99903863
3.22113204 -2.21782398 1.03715837 88 15 1737281142202 4.04600202
13.51174831 -13.64649868 3.03265619 33 12 1737281142202 19.44199764
3.19623113 -2.20889044 0.74777621 86 13 1737281142202 3.95654643
15.37165165 -15.53075600 1.90871072 3 10 1737281142202 21.93479503
3.17082548 -2.19869447 0.46883425 85 11 1737281142202 3.88692644
15.28011227 -15.44904613 0.37867358 3 8 1737281142202 21.73242396
3.15117669 -2.18915367 0.19926915 82 9 1737281142202 3.84213697
15.23508167 -15.41426754 -1.13398933 3 6 1737281142202 21.70237980
3.12752128 -2.17437935 -0.06588283 83 7 1737281142202 3.80967918
2.86392498 -2.89843607 -0.49530312 25 4 1737281142202 4.10467089
3.09743690 -2.15432525 -0.32639945 81 5 1737281142202 3.78705284
2.70794535 -2.74519229 -0.74205709 1 2 1737281142202 3.92679226
3.07843375 -2.13879037 -0.58754545 81 3 1737281142202 3.79425728
3.05915689 -2.12153149 -0.85079604 89 1 1737281142202 3.81879440
3.41852570 -3.47595716 1.11659956 37 14 1737281142202 5.00153883
3.21932888 -2.23317671 1.03909707 81 15 1737281142202 4.05350211
13.47268581 -13.70238590 3.03460979 32 12 1737281142202 19.45449817
3.19454861 -2.22423363 0.74920601 82 13 1737281142202 3.96404663
15.28495502 -15.55678940 1.90500665 9 10 1737281142202 21.89229538
3.17127466 -2.21542406 0.47005120 78 11 1737281142202 3.89692634
15.19361687 -15.47462082 0.37793183 9 8 1737281142202 21.68992198
3.14927220 -2.20497656 0.19966166 79 9 1737281142202 3.84963658
15.04561043 -15.33455563 -1.12404537 23 6 1737281142202 21.51237940
3.13015747 -2.19244075 -0.06610098 78 7 1737281142202 3.82217890
2.82549357 -2.88055634 -0.49043527 21 4 1737281142202 4.06467041
3.09806347 -2.17083120 -0.32726926 75 5 1737281142202 3.79705288
2.69319677 -2.74936628 -0.74062735 1 2 1737281142202 3.91929237
3.07904816 -2.15517712 -0.58910805 77 3 1737281142202 3.80425738
3.17149568 -3.24376416 -1.20452547 5 0 1737281142202 4.69374822
3.05772853 -2.13637543 -0.85248190 82 1 1737281142202 3.82629444
3.40576267 -3.48846316 1.11659956 36 14 1737281142202 5.00153868
3.22102690 -2.25186825 1.04232800 77 15 1737281142202 4.06600203
13.42582226 -13.75520802 3.03539085 33 12 1737281142202 19.45949764
3.19039607 -2.23874187 0.75015920 73 13 1737281142202 3.96904662
15.16969013 -15.54765320 1.89738059 11 10 1737281142202 21.80479470
3.17164588 -2.23218346 0.47126818 72 11 1737281142202 3.90692645
15.08018398 -15.46670723 0.37644839 18 8 1737281142202 21.60492293
3.15176535 -2.22313952 0.20031586 70 9 1737281142202 3.86213679
14.97805405 -15.37267399 -1.12299883 35 6 1737281142202 21.49237853
3.13270569 -2.21054769 -0.06631914 71 7 1737281142202 3.83467916
2.79119349 -2.86550498 -0.48617592 25 4 1737281142202 4.02967082
3.10268569 -2.19023538 -0.32857400 69 5 1737281142202 3.81205330
2.65108705 -2.72531033 -0.73157203 5 2 1737281142202 3.87179242
3.07958508 -2.17159414 -0.59067070 70 3 1737281142202 3.81425710
3.13156652 -3.22534657 -1.19353998 14 0 1737281142202 4.65124790
3.06022143 -2.15403414 -0.85529160 73 1 1737281142202 3.83879434
3.39587092 -3.50148749 1.11716151 35 14 1737281142202 5.00403875
3.21749449 -2.26531315 1.04362047 70 15 1737281142202 4.07100210
13.38529110 -13.80497360 3.03656268 32 12 1737281142202 19.46699840
3.19699574 -2.25920677 0.75349534 67 13 1737281142202 3.98654640
14.91951370 -15.39837837 1.87275898 1 10 1737281142202 21.52229476
3.17396450 -2.25040507 0.47278938 63 11 1737281142202 3.91942642
14.82014561 -15.30115318 0.37121269 1 8 1737281142202 21.30492439
3.15252423 -2.23935223 0.20083922 62 9 1737281142202 3.87213686
14.92525864 -15.42046547 -1.12286794 28 6 1737281142202 21.48987978
3.13312626 -2.22725248 -0.06649367 61 7 1737281142202 3.84467881
2.76442933 -2.85690427 -0.48313355 24 4 1737281142202 4.00467097
3.10556340 -2.20771527 -0.32966128 58 5 1737281142202 3.82455322
2.63133287 -2.72395229 -0.72871244 7 2 1737281142202 3.85679279
3.08407497 -2.19089627 -0.59301460 62 3 1737281142202 3.82925727
3.11358690 -3.22930121 -1.19095516 28 0 1737281142202 4.64124810
3.06300735 -2.17120194 -0.85810143 63 1 1737281142202 3.85129459
3.38531709 -3.51507545 1.11772346 40 14 1737281142202 5.00653902
3.22336793 -2.28629446 1.04814386 61 15 1737281142202 4.08850202
13.34044743 -13.85517120 3.03734422 32 12 1737281142202 19.47199955
3.20109606 -2.27887845 0.75635493 54 13 1737281142202 4.00154667
3.18063259 -2.27099490 0.47491905 53 11 1737281142202 3.93692642
14.65055752 -15.23207569 0.36828938 1 8 1737281142202 21.13742185
3.15688014 -2.25904608 0.20162426 49 9 1737281142202 3.88713696
14.80560493 -15.40406513 -1.11789596 21 6 1737281142202 21.39487909
3.13996291 -2.24779820 -0.06679908 50 7 1737281142202 3.86217891
2.73725557 -2.84863544 -0.48009112 28 4 1737281142202 3.97967077
3.10999751 -2.22722816 -0.33096600 47 5 1737281142202 3.83955314
2.62568164 -2.73620605 -0.72966564 4 2 1737281142202 3.86179228
3.09287286 -2.21258569 -0.59613985 49 3 1737281142202 3.84925716
3.12289786 -3.26054621 -1.19870961 21 0 1737281142202 4.67124794
3.06731486 -2.19035983 -0.86147314 51 1 1737281142202 3.86629443
3.37195873 -3.52452135 1.11716151 48 14 1737281142202 5.00403900
3.22560310 -2.30397820 1.05137503 48 15 1737281142202 4.10100237
13.30637455 -13.91182613 3.04007888 32 12 1737281142202 19.48949947
3.20949125 -2.30090189 0.76016766 43 13 1737281142202 4.02154678
3.18679857 -2.29220963 0.47704872 42 11 1737281142202 3.95442608
3.16964316 -2.28407431 0.20293266 40 9 1737281142202 3.91213687
14.78719616 -15.48738766 -1.12038195 44 6 1737281142202 21.44237866
3.14630175 -2.26896286 -0.06710450 40 7 1737281142202 3.87967913
2.70895672 -2.83794355 -0.47674450 30 4 1737281142202 3.95217098
3.11674714 -2.24770999 -0.33248821 40 5 1737281142202 3.85705345
2.62457514 -2.75424242 -0.73204863 3 2 1737281142202 3.87429234
3.09515595 -2.23057461 -0.59809309 42 3 1737281142202 3.86175722
3.06795239 -2.20619845 -0.86372095 42 1 1737281142202 3.87629429
3.35963511 -3.53627014 1.11716151 44 14 1737281142202 5.00403882
3.23519850 -2.32789755 1.05719078 39 15 1737281142202 4.12350199
13.25943375 -13.95998096 3.04046965 31 12 1737281142202 19.49200112
3.21338749 -2.32069826 0.76302725 37 13 1737281142202 4.03654681
3.19888878 -2.31785631 0.48009112 34 11 1737281142202 3.97942644
3.18187165 -2.30976701 0.20424107 31 9 1737281142202 3.93713668
3.15697861 -2.29258180 -0.06749718 31 7 1737281142202 3.90217902
2.69050312 -2.83837366 -0.47522330 31 4 1737281142203 3.93967121
3.13308215 -2.27611279 -0.33509764 30 5 1737281142203 3.88705334
2.62506104 -2.77408767 -0.73490822 3 2 1737281142203 3.88929273
3.11135030 -2.25874424 -0.60278094 32 3 1737281142203 3.89175681
3.08195233 -2.23258758 -0.86990243 34 1 1737281142203 3.90379401
3.34559989 -3.54620290 1.11659956 46 14 1737281142203 5.00153858
13.21401119 -14.00977230 3.04125071 30 12 1737281142203 19.49700022
3.23704600 -2.35496449 0.77065277 23 13 1737281142203 4.07654637
3.21685600 -2.34799647 0.48404625 13 11 1737281142203 4.01192607
2.67717886 -2.84413218 -0.47461480 30 4 1737281142203 3.93467073
2.60864282 -2.77607656 -0.73300183 2 2 1737281142203 3.87929247
3.09777474 -2.26053500 -0.87664586 13 1 1737281142203 3.93379395
3.34214759 -3.56616879 1.11940932 39 14 1737281142201 5.01403904
13.17254353 -14.05891895 3.04242277 31 12 1737281142201 19.50449798
2.78256679 -2.97280955 -0.21156810 10 6 1737281142201 4.07738098
2.66434479 -2.84936786 -0.47400633 32 4 1737281142201 3.92967077
2.61281228 -2.79907084 -0.73681456 3 2 1737281142201 3.89929240
2.58728337 -2.77652359 -1.00614059 35 0 1737281142201 3.92624979
3.32470202 -3.57246161 1.11772346 34 14 1737281142201 5.00653885
13.12338829 -14.10481358 3.04242277 28 12 1737281142201 19.50449750
2.76995373 -2.98115873 -0.21143726 15 6 1737281142201 4.07488120
2.65050912 -2.85547495 -0.47339785 32 4 1737281142201 3.92467085
2.62803769 -2.83518434 -0.74396348 8 2 1737281142201 3.93679235
2.54151034 -2.74652267 -0.99192411 11 0 1737281142201 3.87124980
3.31323886 -3.58641338 1.11828542 34 14 1737281142201 5.00903933
3.50923252 -2.59965110 1.15929115 39 15 1737281142201 4.51850138
13.07495403 -14.15644836 3.04320407 28 12 1737281142201 19.50949882
13.50871754 -10.02723408 3.26038051 32 13 1737281142201 17.13653856
2.76460719 -2.99631643 -0.21182978 9 6 1737281142201 4.08238128
2.63716364 -2.86105919 -0.47278938 32 4 1737281142201 3.91967110
2.63257599 -2.86105895 -0.74825281 8 2 1737281142201 3.95929248
7.15739965 -5.34263802 -1.40753067 5 3 1737281142201 9.04175278
2.54007339 -2.76427317 -0.99515516 7 0 1737281142201 3.88374983
6.15799809 -4.58745766 -1.76340687 1 1 1737281142201 7.87878874
3.30069947 -3.59795690 1.11828542 34 14 1737281142201 5.00903914
3.50013638 -2.61188483 1.15929115 39 15 1737281142201 4.51850119
13.03213501 -14.20928192 3.04476643 27 12 1737281142201 19.51949892
13.47363377 -10.07432747 3.26038051 34 13 1737281142201 17.13653879
2.74233103 -2.99305725 -0.21091388 8 6 1737281142201 4.06488079
2.62716055 -2.87024689 -0.47278938 32 4 1737281142201 3.91967085
2.62753630 -2.87566829 -0.74968261 21 2 1737281142201 3.96679204
7.09132195 -5.33199883 -1.39815509 4 3 1737281142201 8.98175351
2.52552819 -2.76776838 -0.99321651 7 0 1737281142201 3.87624993
6.13025188 -4.60015965 -1.76003516 2 1 1737281142201 7.86378921
3.28812027 -3.60945678 1.11828542 34 14 1737281142201 5.00903937
3.49099803 -2.62408662 1.15929115 39 15 1737281142201 4.51850128
12.98411751 -14.25651073 3.04515719 26 12 1737281142201 19.52199754
13.43838596 -10.12129879 3.26038051 35 13 1737281142201 17.13653954
2.72514963 -2.99522209 -0.21039054 8 6 1737281142201 4.05488102
2.61879349 -2.88123679 -0.47309360 32 4 1737281142202 3.92217062
2.64715004 -2.91755271 -0.75826132 32 2 1737281142202 4.01179229
7.02540493 -5.32096291 -1.38877928 4 3 1737281142202 8.92175255
2.51585126 -2.77656746 -0.99321651 7 0 1737281142202 3.87624992
6.13943100 -4.64061069 -1.76734054 2 1 1737281142202 7.89628857
3.27550077 -3.62091231 1.11828542 33 14 1737281142202 5.00903919
3.47603583 -2.63188887 1.15735257 37 15 1737281142202 4.51100090
12.93924332 -14.30724144 3.04632926 25 12 1737281142202 19.52949813
13.39515209 -10.16221333 3.25847411 33 13 1737281142202 17.12653884
2.71635079 -3.00656986 -0.21052139 10 6 1737281142202 4.05738133
2.60872030 -2.89036059 -0.47309360 31 4 1737281142202 3.92217077
2.63694978 -2.92677498 -0.75826132 28 2 1737281142202 4.01179214
6.96750927 -5.31551981 -1.38096607 4 3 1737281142202 8.87175313
2.50614405 -2.78533244 -0.99321651 8 0 1737281142202 3.87624997
6.09410906 -4.63989496 -1.75891125 2 1 1737281142202 7.85878866
3.26284146 -3.63232374 1.11828542 33 14 1737281142202 5.00903907
3.46874952 -2.64546919 1.15799868 37 15 1737281142202 4.51350102
12.88922119 -14.35232067 3.04632926 23 12 1737281142202 19.52949701
13.34984684 -10.20146370 3.25609136 33 13 1737281142202 17.11404111
2.70250630 -3.01231480 -0.21025969 10 6 1737281142202 4.05238077
2.60192561 -2.90314674 -0.47370207 31 4 1737281142202 3.92717094
2.62998819 -2.93962145 -0.75921446 27 2 1737281142202 4.01679210
6.91169596 -5.31124163 -1.37354374 4 3 1737281142202 8.82425357
2.50074196 -2.79990506 -0.99515516 5 0 1737281142202 3.88374980
6.10993433 -4.68738747 -1.76846445 3 1 1737281142202 7.90128884
3.25014234 -3.64369106 1.11828542 31 14 1737281142202 5.00903903
3.46524429 -2.66196871 1.15993726 39 15 1737281142202 4.52100098
12.84726238 -14.40644073 3.04828262 23 12 1737281142202 19.54199868
13.25774479 -10.20460606 3.24226999 33 13 1737281142202 17.04154032
2.68646908 -3.01660419 -0.20986716 15 6 1737281142202 4.04488086
2.58797073 -2.90895414 -0.47309360 27 4 1737281142202 3.92217086
2.62785649 -2.95796156 -0.76159745 27 2 1737281142202 4.02929237
6.85013628 -5.30210686 -1.36494923 4 3 1737281142202 8.76925257
2.48775005 -2.80500221 -0.99386275 7 0 1737281142202 3.87874991
6.08967781 -4.70570946 -1.76734054 3 1 1737281142202 7.89628836
3.23999405 -3.65922785 1.11940932 31 14 1737281142202 5.01403900
3.45164180 -2.67169929 1.15864491 42 15 1737281142202 4.51600113
12.79601097 -14.45528126 3.04867339 24 12 1737281142202 19.54449954
13.14072609 -10.19148540 3.22272944 35 13 1737281142202 16.93903899
2.68584108 -3.03718948 -0.21065222 26 6 1737281142202 4.05988136
2.61064029 -2.95517969 -0.47917843 27 4 1737281142202 3.97217090
2.63049579 -2.98184586 -0.76541018 31 2 1737281142202 4.04929198
6.79846811 -5.30019426 -1.35830820 4 3 1737281142202 8.72675364
2.44444466 -2.77559137 -0.98029244 7 0 1737281142202 3.82625018
6.08090830 -4.73291874 -1.76958835 3 1 1737281142202 7.90628917
3.22784185 -3.66995192 1.11940932 30 14 1737281142202 5.01403902
3.45038867 -2.68906045 1.16122973 44 15 1737281142202 4.52600072
12.74963474 -14.49948978 3.04906368 25 12 1737281142202 19.54699924
13.21520138 -10.31956196 3.24941897 32 13 1737281142202 17.07904067
2.67410779 -3.04420280 -0.21052139 19 6 1737281142202 4.05738123
2.61845517 -2.98916292 -0.76493359 32 2 1737281142202 4.04679204
6.74106741 -5.29341316 -1.35049510 4 3 1737281142202 8.67675341
6.06901646 -4.75606012 -1.77071226 3 1 1737281142202 7.91128880
3.21340990 -3.67936134 1.11884737 30 14 1737281142202 5.01153894
3.44288230 -2.70257759 1.16187596 45 15 1737281142202 4.52850085
12.70868778 -14.55506706 3.05140781 25 12 1737281142202 19.56199918
13.20804024 -10.38837814 3.25656796 31 13 1737281142202 17.11654060
2.67330623 -3.06481171 -0.21130641 11 6 1737281142202 4.07238105
14.16718102 -11.21045494 -1.57437193 10 5 1737281142202 18.13455169
2.61444426 -3.00569487 -0.76683998 30 2 1737281142202 4.05679232
6.69542313 -5.29548120 -1.34502590 4 3 1737281142202 8.64175368
6.05728197 -4.78279781 -1.77239811 3 1 1737281142202 7.91878873
3.20054674 -3.69055605 1.11884737 30 14 1737281142202 5.01153897
3.43721986 -2.71757054 1.16316843 43 15 1737281142202 4.53350094
12.66103840 -14.60307121 3.05218911 25 12 1737281142202 19.56699876
13.16207790 -10.42680359 3.25418496 28 13 1737281142202 17.10404185
16.20825005 -18.70839882 2.16255188 7 10 1737281142202 24.84729737
16.16942215 -18.67675209 0.43059444 5 8 1737281142202 24.70742182
2.66532159 -3.07836556 -0.21156810 10 6 1737281142202 4.07738087
14.12991047 -11.26138973 -1.57458925 12 5 1737281142202 18.13705047
2.59912658 -3.00922823 -0.76541018 25 2 1737281142202 4.04929207
6.63052416 -5.28192043 -1.33565009 4 3 1737281142202 8.58175362
6.05199480 -4.81300354 -1.77576971 4 1 1737281142202 7.93378864
3.18541050 -3.70041513 1.11828542 30 14 1737281142202 5.00903928
3.42534590 -2.72864771 1.16252220 40 15 1737281142202 4.53100107
12.61548233 -14.65873718 3.05414248 25 12 1737281142202 19.57949837
13.14679527 -10.49333858 3.25990415 27 13 1737281142202 17.13404084
16.10711670 -18.72332191 2.15775824 24 10 1737281142202 24.79229543
16.04710197 -18.66673660 0.42906737 10 8 1737281142202 24.61992356
2.83573675 -3.30207372 -0.52937806 24 4 1737281142202 4.38467044
2.58860660 -3.01828265 -0.76541018 26 2 1737281142202 4.04929216
6.57928991 -5.27878046 -1.32900906 4 3 1737281142202 8.53925313
2.24377131 -2.62041283 -0.91373336 38 0 1737281142202 3.56875073
6.03135347 -4.83105612 -1.77464592 3 1 1737281142202 7.92878907
3.17786932 -3.71651411 1.11997128 30 14 1737281142202 5.01653927
3.40873599 -2.73395538 1.15993726 36 15 1737281142202 4.52100072
12.55878162 -14.69110584 3.05218911 25 12 1737281142202 19.56699888
13.10618305 -10.53226662 3.25847411 31 13 1737281142202 17.12653870
16.00769615 -18.73966217 2.15318274 42 10 1737281142202 24.73979528
15.91532135 -18.63810349 0.42719126 40 8 1737281142202 24.51242231
2.79097033 -3.27179956 -0.52298903 31 4 1737281142202 4.33217097
2.62894320 -3.08711433 -0.78066117 18 2 1737281142202 4.12929160
6.52623796 -5.27379799 -1.32197726 4 3 1737281142202 8.49425400
2.23304749 -2.62638879 -0.91308719 40 0 1737281142202 3.56625116
6.00960779 -4.84644604 -1.77296007 3 1 1737281142202 7.92128856
3.16014910 -3.72201157 1.11828542 30 14 1737281142202 5.00903930
3.39917207 -2.74583745 1.15993726 35 15 1737281142202 4.52100083
12.52180481 -14.75179958 3.05570507 22 12 1737281142202 19.58950025
13.07506466 -10.58258247 3.25990415 30 13 1737281142202 17.13404047
15.93096352 -18.77554893 2.15122151 36 10 1737281142202 24.71729335
15.83885002 -18.68019867 0.42688584 42 8 1737281142202 24.49492241
2.74586987 -3.24174404 -0.51659995 77 4 1737281142202 4.27967070
6.47521639 -5.27006531 -1.31533599 4 3 1737281142202 8.45175274
2.21452475 -2.62308979 -0.90920991 42 0 1737281142202 3.55125084
5.98612976 -4.86383438 -1.77127409 3 1 1737281142202 7.91378837
3.15027618 -3.73674583 1.11940932 28 14 1737281142202 5.01403896
3.38581681 -2.75464201 1.15864491 34 15 1737281142202 4.51600112
12.46864319 -14.79353046 3.05531430 22 12 1737281142202 19.58699957
13.03043365 -10.62195778 3.25799775 28 13 1737281142202 17.12403976
15.80910301 -18.77094841 2.14403129 35 10 1737281142202 24.63479475
15.71716881 -18.67500877 0.42544600 39 8 1737281142202 24.41242209
15.50601959 -12.70646477 1.04881251 9 9 1737281142202 20.07463320
2.73875785 -3.25748658 -0.51751268 79 4 1737281142202 4.28717072
6.43385458 -5.27386475 -1.31064820 4 3 1737281142202 8.42175355
2.20535493 -2.63080406 -0.90920991 46 0 1737281142202 3.55125091
5.96722984 -4.88315868 -1.77071226 3 1 1737281142202 7.91128894
3.13812184 -3.75013590 1.11997128 28 14 1737281142202 5.01653901
3.37756729 -2.76856208 1.15929115 34 15 1737281142202 4.51850116
12.41433811 -14.83913040 3.05531430 18 12 1737281142202 19.58699894
12.99330997 -10.67120171 3.25847411 28 13 1737281142202 17.12653799
15.73709393 -18.81837463 2.14315987 31 10 1737281142202 24.62479408
15.53246784 -12.79170609 2.46282482 10 11 1737281142202 20.27192166
15.62143421 -18.69331360 0.42461702 37 8 1737281142202 24.36492314
15.40957260 -12.71761990 1.04527986 10 9 1737281142202 20.00713357
13.24058056 -15.85506916 -1.08073747 30 6 1737281142202 20.68487817
2.72578120 -3.26512122 -0.51720846 66 4 1737281142202 4.28467086
6.37920952 -5.26644182 -1.30322576 5 3 1737281142202 8.37425345
2.18689442 -2.62734365 -0.90533268 54 0 1737281142202 3.53625072
5.94074345 -4.89621735 -1.76790249 3 1 1737281142202 7.89878828
3.12878132 -3.76426959 1.12109518 28 14 1737281142202 5.02153886
3.36650348 -2.77821231 1.15864491 34 15 1737281142202 4.51600125
12.96541977 -10.72048473 3.26038051 26 13 1737281142202 17.13653943
15.72858143 -18.94217873 2.15100384 31 10 1737281142202 24.71479772
15.41513062 -12.78566456 2.45126390 10 11 1737281142202 20.17692159
15.60086250 -18.79502296 0.42575142 36 8 1737281142202 24.42992148
15.17717743 -12.61073875 1.03232670 1 9 1737281142202 19.75963423
13.15127468 -15.85469151 -1.07772815 28 6 1737281142202 20.62737905
2.68327761 -3.23592520 -0.51112360 33 4 1737281142202 4.23467094
2.24306726 -2.70934033 -0.67628711 45 2 1737281142202 3.58179286
6.32469463 -5.25870180 -1.29580331 5 3 1737281142202 8.32675285
2.17771006 -2.63496137 -0.90533268 68 0 1737281142202 3.53625081
5.92635059 -4.91744518 -1.76846445 3 1 1737281142202 7.90128882
3.11097312 -3.76953006 1.11940932 28 14 1737281142202 5.01403907
3.36050296 -2.79302955 1.15993726 34 15 1737281142202 4.52100084
12.92037392 -10.75939655 3.25847411 24 13 1737281142202 17.12653876
15.70687485 -19.04418755 2.15666890 31 10 1737281142202 24.77979454
15.58443928 -18.90916824 0.42710400 34 8 1737281142202 24.50742355
13.04030704 -15.83304882 -1.07314873 25 6 1737281142202 20.53988050
2.70822191 -3.28934813 -0.51812112 59 4 1737281142202 4.29217037
2.22580934 -2.70767021 -0.67390412 50 2 1737281142202 3.56929292
6.28167772 -5.26015234 -1.29072487 5 3 1737281142202 8.29425394
2.16849899 -2.64254713 -0.90533268 58 0 1737281142202 3.53625091
5.91202688 -4.94225597 -1.76958835 1 1 1737281142202 7.90628857
3.10088229 -3.78413582 1.12053311 28 14 1737281142202 5.01903869
3.34331894 -2.79855037 1.15735257 32 15 1737281142202 4.51100107
5.44988060 -6.65068913 1.35479224 7 12 1737281142202 8.70450035
12.88085747 -10.80285549 3.25799775 23 13 1737281142202 17.12403940
15.72846127 -19.21340752 2.16930652 15 10 1737281142202 24.92479514
12.93952942 -15.82854557 -1.06961608 22 6 1737281142202 20.47238030
2.68987060 -3.29156375 -0.51690423 70 4 1737281142202 4.28217068
2.21789503 -2.71732545 -0.67438072 61 2 1737281142202 3.57179301
6.22550678 -5.25023079 -1.28291178 5 3 1737281142202 8.24425380
2.16688347 -2.65946603 -0.90856373 48 0 1737281142202 3.54875071
5.90033245 -4.96756554 -1.77127409 1 1 1737281142202 7.91378811
3.08699179 -3.79547572 1.12053311 28 14 1737281142202 5.01903862
3.33673477 -2.81389546 1.15864491 33 15 1737281142202 4.51600096
5.42546797 -6.67061901 1.35479224 10 12 1737281142202 8.70450014
12.82992649 -10.84049320 3.25513792 21 13 1737281142202 17.10903941
15.83721352 -19.48466110 2.19371009 12 10 1737281142202 25.20479546
12.83543015 -15.81352043 -1.06555998 24 6 1737281142202 20.39487959
2.68930292 -3.31442618 -0.51903391 59 4 1737281142202 4.29967061
2.21148443 -2.72886586 -0.67533392 39 2 1737281142202 3.57679300
6.18831205 -5.25595474 -1.27900505 5 3 1737281142202 8.21925302
2.16214108 -2.67264891 -0.91050237 44 0 1737281142202 3.55625095
5.87923861 -4.98498297 -1.77015030 3 1 1737281142202 7.90878839
3.07591915 -3.80758739 1.12109518 28 14 1737281142202 5.02153908
3.32554245 -2.82338405 1.15799868 32 15 1737281142202 4.51350097
5.42038155 -6.70970631 1.35908949 13 12 1737281142202 8.73199972
12.80699444 -10.89410591 3.25847411 21 13 1737281142202 17.12653799
15.80820274 -19.58827972 2.19915724 10 10 1737281142202 25.26729643
12.74375153 -15.80740261 -1.06228900 21 6 1737281142202 20.33237906
2.68140960 -3.32719159 -0.51964235 42 4 1737281142202 4.30467066
2.20502019 -2.74039435 -0.67628711 37 2 1737281142202 3.58179278
6.12487078 -5.23902845 -1.26962948 5 3 1737281142202 8.15925365
2.16186595 -2.69148231 -0.91437954 39 0 1737281142202 3.57125067
5.88492060 -5.02341747 -1.77689373 1 1 1737281142202 7.93878863
3.06108570 -3.81639981 1.12053311 28 14 1737281142202 5.01903852
3.32301569 -2.84124494 1.16058350 32 15 1737281142202 4.52350087
5.39538288 -6.72666025 1.35869873 19 12 1737281142202 8.72950038
15.77275085 -19.67751503 2.20329714 11 10 1737281142202 25.31479381
2.67132854 -3.33846927 -0.51994663 55 4 1737281142203 4.30717050
2.20921779 -2.76533866 -0.68057644 37 2 1737281142203 3.60429264
6.08782768 -5.24427032 -1.26572275 10 3 1737281142203 8.13425296
2.16045427 -2.70807981 -0.91761059 37 0 1737281142203 3.58375057
5.87659121 -5.05186415 -1.77970350 1 1 1737281142203 7.95128921
3.05077910 -3.83087444 1.12165713 28 14 1737281142203 5.02403890
3.31124592 -2.85125303 1.15993726 32 15 1737281142203 4.52100076
5.38417244 -6.76090813 1.36182404 25 12 1737281142203 8.74950034
15.72877884 -19.76363564 2.20678353 13 10 1737281142203 25.35479582
16.90060043 -14.62517166 2.73603272 3 11 1737281142203 22.51692288
2.67045784 -3.36137915 -0.52207631 62 4 1737281142203 4.32467091
2.19193149 -2.76341581 -0.67819345 37 2 1737281142203 3.59179300
2.16747117 -2.73643851 -0.92471880 39 0 1737281142203 3.61125073
5.84049368 -5.05641270 -1.77408397 4 1 1737281142203 7.92628852
3.04040813 -3.84532332 1.12278104 28 14 1737281142201 5.02903871
3.29944706 -2.86121416 1.15929115 32 15 1737281142201 4.51850123
5.36360216 -6.78353596 1.36260545 30 12 1737281142201 8.75450066
5.64334774 -4.90661335 1.44551003 7 13 1737281142201 7.61654302
15.68439579 -19.84968376 2.21026945 16 10 1737281142201 25.39479293
16.84008980 -14.67592812 2.73451138 4 11 1737281142201 22.50442274
2.65717220 -3.36873126 -0.52177203 56 4 1737281142201 4.32217081
2.18378901 -2.77297878 -0.67867005 33 2 1737281142201 3.59429253
2.15146089 -2.73676634 -0.92213398 39 0 1737281142201 3.60125048
3.02546358 -3.85399604 1.12221909 28 14 1737281142201 5.02653867
3.28761888 -2.87112713 1.15864491 32 15 1737281142201 4.51600121
5.35360861 -6.81969976 1.36612117 28 12 1737281142201 8.77699932
5.62249136 -4.92305088 1.44455683 9 13 1737281142201 7.61154278
15.65917873 -19.96779633 2.21702433 16 10 1737281142201 25.47229800
16.80181503 -14.74607563 2.73664117 3 11 1737281142201 22.52192132
2.64786482 -3.38235712 -0.52238053 55 4 1737281142201 4.32717104
2.15596914 -2.75737500 -0.67295092 32 2 1737281142201 3.56429275
2.14486432 -2.74806905 -0.92342645 42 0 1737281142201 3.60625053
3.01281404 -3.86698127 1.12278104 30 14 1737281142201 5.02903866
3.28251791 -2.88793755 1.16058350 31 15 1737281142201 4.52350098
5.33009529 -6.84122467 1.36651194 28 12 1737281142201 8.77950031
5.61177540 -4.95011425 1.44646323 10 13 1737281142201 7.62154250
15.63068676 -20.07539368 2.22290730 18 10 1737281142201 25.53979477
16.75767899 -14.81120682 2.73785806 4 11 1737281142201 22.53192222
2.63756418 -3.39353895 -0.52268481 53 4 1737281142201 4.32967099
2.13881207 -2.75518703 -0.67056799 39 2 1737281142201 3.55179308
2.13525867 -2.75553918 -0.92342645 34 0 1737281142201 3.60625043
3.00146461 -3.87887812 1.12334299 28 14 1737281142201 5.03153900
3.27835178 -2.90360475 1.16252220 30 15 1737281142201 4.53100086
5.31795359 -6.87253523 1.36924648 26 12 1737281142201 8.79699987
5.59900141 -4.97195339 1.44741642 18 13 1737281142201 7.62654257
15.62295818 -20.21062469 2.23184085 22 10 1737281142201 25.64229488
16.69660568 -14.86136341 2.73633671 5 11 1737281142201 22.51942056
2.63084221 -3.40816140 -0.52359748 50 4 1737281142201 4.33717064
2.12768459 -2.76069117 -0.67009133 53 2 1737281142201 3.54929286
2.10208297 -2.73233700 -0.91308719 37 0 1737281142201 3.56625104
2.98642302 -3.88739920 1.12278104 30 14 1737281142201 5.02903889
3.26458836 -2.91181922 1.16122973 34 15 1737281142201 4.52600075
5.29242849 -6.88909769 1.36885595 26 12 1737281142201 8.79450015
5.58710241 -4.99637175 1.44884622 26 13 1737281142201 7.63404214
15.60589504 -20.32751465 2.23903084 23 10 1737281142201 25.72479487
16.61136436 -14.88974953 2.73086047 7 11 1737281142201 22.47442248
2.62043786 -3.41929412 -0.52390170 49 4 1737281142202 4.33967048
2.11505437 -2.76420188 -0.66913819 43 2 1737281142202 3.54429301
2.00949645 -2.62986255 -0.87625349 39 0 1737281142202 3.42375133
2.97578835 -3.90167546 1.12390494 30 14 1737281142202 5.03403914
3.25260592 -2.92158532 1.16058350 35 15 1737281142202 4.52350087
5.26834869 -6.90752983 1.36885595 25 12 1737281142202 8.79450015
5.57510233 -5.02076769 1.45027590 32 13 1737281142202 7.64154267
15.59522533 -20.46109962 2.24774647 26 10 1737281142202 25.82479458
2.61148977 -3.43237162 -0.52451020 48 4 1737281142202 4.34467084
2.09945917 -2.76374769 -0.66723180 54 2 1737281142202 3.53429320
7.16141653 -6.47930241 -1.52238321 22 3 1737281142202 9.77675289
2.01488853 -2.65611029 -0.88271552 39 0 1737281142202 3.44875112
2.99284410 -2.70574856 -0.92272598 7 1 1737281142202 4.13879382
2.96215105 -3.91203880 1.12390494 30 14 1737281142202 5.03403901
3.23700976 -2.92806673 1.15864491 32 15 1737281142202 4.51600100
5.25612593 -6.94162893 1.37198102 25 12 1737281142202 8.81449964
5.55390501 -5.03690243 1.44932282 32 13 1737281142202 7.63654264
15.58080864 -20.59088326 2.25602651 26 10 1737281142202 25.91979411
2.60397696 -3.44740844 -0.52542293 46 4 1737281142202 4.35217075
15.18845940 -13.84115505 -1.79117405 22 5 1737281142202 20.62704963
2.06026697 -2.73185444 -0.65769988 40 2 1737281142202 3.48429301
7.16249466 -6.52586889 -1.52746177 14 3 1737281142202 9.80925247
1.97947371 -2.62838721 -0.87108386 38 0 1737281142202 3.40375125
2.97616792 -2.70962691 -0.92047811 7 1 1737281142202 4.12879322
2.94701433 -3.92040730 1.12334299 30 14 1737281142202 5.03153916
3.23391724 -2.94584537 1.16122973 30 15 1737281142202 4.52600045
5.23631287 -6.96585608 1.37315297 23 12 1737281142202 8.82199934
5.53991508 -5.05956650 1.45027590 35 13 1737281142202 7.64154255
15.57614326 -20.73475647 2.26583147 25 10 1737281142202 26.03229450
15.70093155 -20.91610909 0.45590046 4 8 1737281142202 26.15742181
15.36199284 -14.08779240 1.09055042 7 9 1737281142202 20.87213498
15.28244305 -14.01978207 -0.36139569 10 7 1737281142202 20.74217832
2.58597612 -3.44853354 -0.52420598 45 4 1737281142202 4.34217088
15.11619282 -13.87220192 -1.78834724 62 5 1737281142202 20.59454921
2.04483914 -2.73116827 -0.65579355 33 2 1737281142202 3.47429308
1.96595192 -2.62947559 -0.86914521 43 0 1737281142202 3.39625121
2.97388172 -2.72657633 -0.92272598 7 1 1737281142202 4.13879381
2.93622398 -3.93457627 1.12446690 32 14 1737281142202 5.03653924
3.22005200 -2.95385504 1.15993726 31 15 1737281142202 4.52100088
5.22525263 -7.00190544 1.37666893 1 12 1737281142202 8.84449898
5.52764225 -5.08385420 1.45170581 35 13 1737281142202 7.64904256
15.55577660 -20.85888100 2.27345753 24 10 1737281142202 26.11979539
15.42010593 -14.21557045 2.56717920 9 11 1737281142202 21.12942307
15.69055176 -21.05497360 0.45773295 5 8 1737281142202 26.26242272
15.29070854 -14.12100697 1.08898032 10 9 1737281142202 20.84213241
15.18750191 -14.03064728 -0.36030492 13 7 1737281142202 20.67967835
15.10426617 -13.95868206 -1.79269624 75 5 1737281142202 20.64454943
2.00457263 -2.69690895 -0.64578503 38 2 1737281142202 3.42179304
1.95532322 -2.63438201 -0.86849904 43 0 1737281142202 3.39375132
2.97151279 -2.74354219 -0.92497373 4 1 1737281142202 4.14879361
2.92102265 -3.94284368 1.12390494 31 14 1737281142202 5.03403932
3.21149755 -2.96671414 1.16058350 32 15 1737281142202 4.52350123
5.51526737 -5.10811758 1.45313561 34 13 1737281142202 7.65654246
15.54806805 -21.00112915 2.28304482 24 10 1737281142202 26.22979488
15.28308201 -14.18829060 2.55257583 9 11 1737281142202 21.00942239
15.65858078 -21.16588402 0.45895463 7 8 1737281142202 26.33242180
15.17732525 -14.11480427 1.08440101 9 9 1737281142202 20.75463386
15.09816074 -14.04612732 -0.35934505 10 7 1737281142202 20.62467647
15.03539181 -13.99266338 -1.79030442 40 5 1737281142202 20.61705181
1.99077857 -2.69796324 -0.64435530 40 2 1737281142202 3.41429329
3.02087212 -2.81442571 -0.64770633 7 3 1737281142202 4.17925638
1.94038999 -2.63341093 -0.86591423 44 0 1737281142202 3.38375145
2.96370411 -2.75555468 -0.92553568 5 1 1737281142202 4.15129376
2.90724158 -3.95301580 1.12390494 31 14 1737281142202 5.03403912
3.19581223 -2.97297692 1.15864491 32 15 1737281142202 4.51600106
5.50817728 -5.13737535 1.45599508 33 13 1737281142202 7.67154249
15.53070641 -21.13153458 2.29132438 24 10 1737281142202 26.32479368
15.63638496 -21.29093170 0.46048173 9 8 1737281142202 26.41992337
1.97989976 -2.70291519 -0.64387870 38 2 1737281142202 3.41179328
3.02725410 -2.84014106 -0.65122223 5 3 1737281142202 4.20175666
1.92833650 -2.63626790 -0.86462182 58 0 1737281142202 3.37875140
2.94872665 -2.76089454 -0.92384988 4 1 1737281142202 4.14379369
2.89773178 -3.96904349 1.12559080 32 14 1737281142202 5.04153849
3.18717933 -2.98576379 1.15929115 32 15 1737281142202 4.51850124
3.70041871 -5.06757069 0.98718566 9 12 1737281142202 6.35200022
5.49021101 -5.15657091 1.45599508 31 13 1737281142202 7.67154236
15.51702499 -21.26811218 2.30025792 25 10 1737281142202 26.42729360
15.66356659 -21.48475647 0.46349224 9 8 1737281142202 26.59242193
2.07623339 -2.85025215 -0.42806605 21 4 1737281142202 3.55217158
1.96179974 -2.69789553 -0.64101911 36 2 1737281142202 3.39679319
2.99935365 -2.83375287 -0.64731568 8 3 1737281142202 4.17675654
1.91628683 -2.63907290 -0.86332941 62 0 1737281142202 3.37375142
2.94794297 -2.77951622 -0.92665964 3 1 1737281142202 4.15629357
2.88528848 -3.98110723 1.12615275 32 14 1737281142202 5.04403850
3.17146206 -2.99190450 1.15735257 33 15 1737281142202 4.51100090
3.68850136 -5.08845615 0.98874831 14 12 1737281142202 6.36200059
5.47574615 -5.17907476 1.45694828 31 13 1737281142202 7.67654282
15.50842285 -21.41291809 2.31006289 24 10 1737281142202 26.53979335
15.65734768 -21.63447952 0.46554291 15 8 1737281142202 26.70992270
2.05610085 -2.84340096 -0.42593637 31 4 1737281142202 3.53467134
1.94949985 -2.70074582 -0.64006591 38 2 1737281142202 3.39179333
2.98407102 -2.83910489 -0.64614367 8 3 1737281142202 4.16925630
1.90660119 -2.64607882 -0.86332941 63 0 1737281142202 3.37375146
2.93596745 -2.78862619 -0.92609763 4 1 1737281142202 4.15379317
2.86995244 -3.98917651 1.12559080 32 14 1737281142202 5.04153855
3.16450453 -3.00627995 1.15864491 34 15 1737281142202 4.51600111
3.68225002 -5.11733866 0.99187356 21 12 1737281142202 6.38200073
5.45585632 -5.19646549 1.45647168 31 13 1737281142202 7.67404271
15.49232864 -21.55658340 2.31943226 25 10 1737281142202 26.64729444
15.57794857 -21.69172096 0.46554291 31 8 1737281142202 26.70992269
2.03843737 -2.84083343 -0.42441517 35 4 1737281142202 3.52217116
1.93434763 -2.69955111 -0.63815957 38 2 1737281142202 3.38179310
2.94915390 -2.82561588 -0.64067453 19 3 1737281142202 4.13425661
1.89594924 -2.65075278 -0.86268318 61 0 1737281142202 3.37125142
2.93150282 -2.80390358 -0.92778355 10 1 1737281142202 4.16129383
2.85672688 -4.00165224 1.12615275 33 14 1737281142202 5.04403897
3.15521145 -3.01952624 1.15929115 34 15 1737281142202 4.51850130
3.66346955 -5.13080025 0.99187356 23 12 1737281142202 6.38200074
5.43500185 -5.21472931 1.45599508 31 13 1737281142202 7.67154278
15.47917557 -21.69771576 2.32880139 25 10 1737281142202 26.75479511
15.48182392 -21.71747017 0.46493208 33 8 1737281142202 26.67492351
2.02275515 -2.83984399 -0.42319819 36 4 1737281142202 3.51217155
1.92775524 -2.71028852 -0.63911277 42 2 1737281142202 3.38679336
2.92148304 -2.81876802 -0.63676798 34 3 1737281142202 4.10925660
1.88249409 -2.65144467 -0.86074460 60 0 1737281142202 3.36375150
2.93047929 -2.82255864 -0.93059325 43 1 1737281142202 4.17379323
2.84203291 -4.00911522 1.12559080 33 14 1737281142202 5.04153851
3.14518094 -3.02997279 1.15929115 34 15 1737281142202 4.51850133
3.64929008 -5.14695024 0.99265486 24 12 1737281142202 6.38700075
5.42121220 -5.23613167 1.45694828 31 13 1737281142202 7.67654316
15.45659065 -21.82682228 2.33686328 24 10 1737281142202 26.84729587
15.38228226 -21.72992325 0.46410307 33 8 1737281142202 26.62742127
2.00616741 -2.83640265 -0.42167699 37 4 1737281142202 3.49967130
1.91404009 -2.71098423 -0.63768297 40 2 1737281142202 3.37929350
2.88680458 -2.80488658 -0.63129884 5 3 1737281142202 4.07425670
1.85654688 -2.63430071 -0.85299015 46 0 1737281142202 3.33375145
2.91935253 -2.83056712 -0.93003130 49 1 1737281142202 4.17129328
2.82942247 -4.02100420 1.12615275 33 14 1737281142202 5.04403869
3.13458538 -3.04093266 1.15929115 34 15 1737281142202 4.51850118
3.63840437 -5.16975594 0.99460816 25 12 1737281142202 6.39950062
5.40818167 -5.26015329 1.45837808 31 13 1737281142202 7.68404244
15.44858360 -21.96963692 2.34666824 30 10 1737281142202 26.95979476
15.23449039 -21.68121910 0.46192154 1 8 1737281142202 26.50242123
1.99055552 -2.83526134 -0.42046005 38 4 1737281142202 3.48967117
1.89752865 -2.70759630 -0.63529998 37 2 1737281142202 3.36679354
2.86109352 -2.79942226 -0.62778294 5 3 1737281142202 4.05175673
1.84180772 -2.63284659 -0.85040534 30 0 1737281142202 3.32375181
2.91419268 -2.84634900 -0.93171722 49 1 1737281142202 4.17879391
2.81676316 -4.03285408 1.12671471 33 14 1737281142202 5.04653869
3.12395120 -3.05185604 1.15929115 34 15 1737281142202 4.51850112
3.62316322 -5.18647432 0.99538946 26 12 1737281142202 6.40450059
5.38452435 -5.27385092 1.45694828 31 13 1737281142202 7.67654247
15.41782856 -22.09760094 2.35429454 32 10 1737281142202 27.04729390
15.23211193 -21.84764290 0.46427760 1 8 1737281142202 26.63742269
2.06067252 -2.95497346 -0.18697020 3 6 1737281142202 3.60738094
1.97022974 -2.82827997 -0.41833037 37 4 1737281142202 3.47217124
1.88666546 -2.71218777 -0.63482338 42 2 1737281142202 3.36429336
2.82489061 -2.78342652 -0.62192309 1 3 1737281142202 4.01425691
1.81609154 -2.61544514 -0.84265089 36 0 1737281142202 3.29375200
2.90597773 -2.85821009 -0.93227917 44 1 1737281142202 4.18129357
2.80057645 -4.04114819 1.12615275 33 14 1737281142202 5.04403877
3.11791372 -3.06836152 1.16122973 35 15 1737281142202 4.52600076
3.59850550 -5.19159937 0.99382681 26 12 1737281142202 6.39450057
5.37564659 -5.30388641 1.45980787 30 13 1737281142202 7.69154252
15.38455296 -22.21475983 2.36104918 23 10 1737281142202 27.12479635
15.25104904 -22.03840065 0.46720088 1 8 1737281142202 26.80492262
2.04466629 -2.95393443 -0.18644685 7 6 1737281142202 3.59738117
1.95188451 -2.82288957 -0.41650492 38 4 1737281142202 3.45717153
2.90495563 -2.88513780 -0.35445109 4 5 1737281142202 4.10955264
1.87300718 -2.71269560 -0.63339365 43 2 1737281142202 3.35679323
2.80287313 -2.78110981 -0.61918849 1 3 1737281142202 3.99675668
1.80147362 -2.61381125 -0.84006608 44 0 1737281142202 3.28375204
2.91850829 -2.89059567 -0.93958449 43 1 1737281142202 4.21379319
2.79130077 -4.05643559 1.12783861 35 14 1737281142202 5.05153933
3.09913421 -3.07019496 1.15799868 34 15 1737281142202 4.51350095
3.58686709 -5.21164179 0.99538946 27 12 1737281142202 6.40450044
5.37893677 -5.34242344 1.46552706 1 13 1737281142202 7.72154250
15.38026619 -22.37505341 2.37237930 19 10 1737281142202 27.25479383
15.29253292 -22.25573349 0.47073501 1 8 1737281142202 27.00742172
2.03344631 -2.95864034 -0.18631600 10 6 1737281142202 3.59488111
1.94531918 -2.83343959 -0.41711339 43 4 1737281142202 3.46217131
2.86010838 -2.85957742 -0.35010204 7 5 1737281142202 4.05955347
1.86352658 -2.71921706 -0.63339365 44 2 1737281142202 3.35679315
2.75992131 -2.75775409 -0.61176604 2 3 1737281142202 3.94925701
1.79370105 -2.62207747 -0.84071219 54 0 1737281142202 3.28625177
2.91063380 -2.90197611 -0.94014645 40 1 1737281142202 4.21629337
2.77575088 -4.06414175 1.12727666 38 14 1737281142202 5.04903889
3.09353304 -3.08610582 1.15993726 35 15 1737281142202 4.52100103
3.56726122 -5.22209120 0.99499881 27 12 1737281142202 6.40200060
15.33827209 -22.47324944 2.37739086 15 10 1737281142202 27.31229610
15.58602524 -15.62518501 2.70165348 3 11 1737281142202 22.23442198
15.27530766 -22.39778137 0.47261116 1 8 1737281142202 27.11492201
2.02310634 -2.96572018 -0.18631600 24 6 1737281142202 3.59488095
1.92703962 -2.82790470 -0.41528794 42 4 1737281142202 3.44717142
2.84835196 -2.86777878 -0.34988457 9 5 1737281142202 4.05705351
1.84850717 -2.71758580 -0.63148725 43 2 1737281142202 3.34679361
2.73982167 -2.75687456 -0.60942209 4 3 1737281142202 3.93425665
1.78228450 -2.62401390 -0.83941984 51 0 1737281142202 3.28125169
2.76427984 -4.07784033 1.12840056 39 14 1737281142202 5.05403924
3.07933068 -3.09346604 1.15864491 35 15 1737281142202 4.51600129
3.55178070 -5.23860025 0.99578011 27 12 1737281142202 6.40700061
15.29883766 -22.58438873 2.38349175 15 10 1737281142202 27.38229503
15.44231033 -15.58960438 2.68613744 4 11 1737281142202 22.10692307
15.26568222 -22.55240059 0.47474906 14 8 1737281142202 27.23742302
2.00854588 -2.96656013 -0.18592349 28 6 1737281142202 3.58738109
1.91715670 -2.83461380 -0.41528794 42 4 1737281142202 3.44717120
2.82606792 -2.86530542 -0.34836239 10 5 1737281142202 4.03955337
1.84312570 -2.73012614 -0.63291705 43 2 1737281142202 3.35429353
2.72149897 -2.75764441 -0.60746884 5 3 1737281142202 3.92175697
1.77446318 -2.63222265 -0.84006608 43 0 1737281142202 3.28375192
2.74731040 -4.08342123 1.12727666 38 14 1737281142202 5.04903912
3.07021308 -3.10591173 1.15929115 35 15 1737281142202 4.51850108
3.53071713 -5.24686813 0.99499881 27 12 1737281142202 6.40200057
3.91065550 -3.96806026 1.07519639 23 13 1737281142202 5.67404405
15.23797131 -22.66452408 2.38632417 12 10 1737281142202 27.41479462
15.37387371 -15.62926388 2.68370342 10 11 1737281142202 22.08692252
15.22589207 -22.66364861 0.47597072 1 8 1737281142202 27.30742217
15.22648335 -15.50649929 1.13712943 7 9 1737281142202 21.76213176
1.99261332 -2.96526170 -0.18540013 30 6 1737281142203 3.57738144
15.14949989 -15.43351936 -0.37688470 10 7 1737281142203 21.62967658
1.89757776 -2.82686138 -0.41315827 40 4 1737281142203 3.42967147
2.80558062 -2.86448860 -0.34705767 10 5 1737281142203 4.02455297
1.83085465 -2.73246384 -0.63196379 40 2 1737281142203 3.34929330
2.69974351 -2.75479674 -0.60473424 8 3 1737281142203 3.90425711
1.76258063 -2.63438463 -0.83877361 40 0 1737281142203 3.27875190
2.73439217 -4.09501266 1.12783861 37 14 1737281142203 5.05153929
3.05596542 -3.11316633 1.15799868 35 15 1737281142203 4.51350088
3.51512218 -5.26326847 0.99578011 28 12 1737281142203 6.40700062
3.82634282 -3.90983367 1.05565608 22 13 1737281142203 5.57154453
15.19746685 -22.77558517 2.39242506 10 10 1737281142203 27.48479537
15.26199245 -15.62426662 2.67366338 11 11 1737281142203 22.00442222
15.21879005 -22.82480812 0.47823957 1 8 1737281142203 27.43742243
15.14960003 -15.53632259 1.13542855 10 9 1737281142203 21.72963181
1.98225033 -2.97219896 -0.18540013 30 6 1737281142203 3.57738120
15.05714130 -15.44693565 -0.37592480 13 7 1737281142203 21.57467601
1.89044774 -2.83759975 -0.41376674 42 4 1737281142203 3.43467144
2.78513336 -2.86356449 -0.34575292 14 5 1737281142203 4.00955291
1.82809412 -2.74905992 -0.63434678 38 2 1737281142203 3.36179333
2.68493819 -2.75890112 -0.60356230 4 3 1737281142203 3.89675710
